# .PCD v0.7 - Point Cloud Data file format
VERSION 0.7
FIELDS x y z rgb
SIZE 4 4 4 4
TYPE F F F F
COUNT 1 1 1 1
WIDTH 165
HEIGHT 1
VIEWPOINT 0 0 0 1 0 0 0
POINTS 165
DATA ascii
-0.046875 0.34375 -0.109375 2.343814054e-38
-0.046875 0.34375 -0.09375 2.343814054e-38
-0.046875 0.34375 -0.078125 2.343814054e-38
-0.046875 0.34375 -0.0625 2.343814054e-38
-0.046875 0.359375 -0.125 2.343814054e-38
-0.046875 0.359375 -0.109375 2.343814054e-38
-0.046875 0.359375 -0.09375 2.343814054e-38
-0.046875 0.359375 -0.078125 2.343814054e-38
-0.046875 0.359375 -0.0625 2.343814054e-38
-0.046875 0.375 -0.109375 2.343814054e-38
-0.046875 0.375 -0.078125 2.343814054e-38
-0.03125 0.3125 -0.15625 2.34266611e-38
-0.03125 0.3125 -0.109375 2.343814054e-38
-0.03125 0.328125 -0.15625 2.34266611e-38
-0.03125 0.328125 -0.109375 2.343814054e-38
-0.03125 0.328125 -0.09375 2.343814054e-38
-0.03125 0.34375 -0.15625 2.34266611e-38
-0.03125 0.34375 -0.109375 2.34632518e-38
-0.03125 0.34375 -0.09375 2.34632518e-38
-0.03125 0.34375 -0.078125 2.34632518e-38
-0.03125 0.359375 -0.0625 2.34632518e-38
-0.03125 0.375 -0.109375 2.34632518e-38
-0.015625 0.3125 -0.15625 2.34266611e-38
0.015625 0.34375 -0.015625 2.341836541e-38
0.015625 0.34375 0 2.341836541e-38
0.015625 0.34375 0.015625 2.332657336e-38
0.015625 0.359375 -0.015625 7.530151953e-39
0.015625 0.359375 0 2.332657336e-38
0.015625 0.359375 0.015625 2.332657336e-38
0.015625 0.4375 -0.09375 2.341806413e-38
0.015625 0.4375 -0.078125 2.341806413e-38
0.015625 0.4375 -0.0625 2.341806413e-38
0.03125 0.34375 -0.03125 2.341836541e-38
0.03125 0.34375 -0.015625 2.332657336e-38
0.03125 0.34375 0 2.341836541e-38
0.03125 0.34375 0.015625 2.332657336e-38
0.03125 0.359375 -0.015625 2.332657336e-38
0.03125 0.359375 0 2.332657336e-38
0.03125 0.359375 0.015625 2.332657336e-38
0.03125 0.390625 -0.109375 2.341806413e-38
0.03125 0.390625 -0.09375 2.341806413e-38
0.03125 0.390625 -0.078125 2.341806413e-38
0.03125 0.390625 -0.0625 2.341806413e-38
0.03125 0.390625 -0.046875 2.341806413e-38
0.03125 0.40625 -0.109375 2.341806413e-38
0.03125 0.40625 -0.09375 2.341806413e-38
0.03125 0.40625 -0.078125 2.341806413e-38
0.03125 0.40625 -0.0625 2.341806413e-38
0.03125 0.40625 -0.046875 2.341806413e-38
0.03125 0.40625 -0.03125 2.341806413e-38
0.03125 0.421875 -0.125 2.341806413e-38
0.03125 0.421875 -0.109375 2.341806413e-38
0.03125 0.421875 -0.09375 2.341806413e-38
0.03125 0.421875 -0.078125 2.341806413e-38
0.03125 0.421875 -0.0625 2.341806413e-38
0.03125 0.421875 -0.046875 2.341806413e-38
0.03125 0.421875 -0.03125 2.341806413e-38
0.03125 0.4375 -0.140625 2.341806413e-38
0.03125 0.4375 -0.125 2.341806413e-38
0.03125 0.4375 -0.109375 2.341806413e-38
0.03125 0.4375 -0.09375 2.341806413e-38
0.03125 0.4375 -0.078125 2.341806413e-38
0.03125 0.4375 -0.0625 2.341806413e-38
0.03125 0.4375 -0.046875 2.341806413e-38
0.03125 0.4375 -0.03125 2.341806413e-38
0.03125 0.453125 -0.109375 2.341806413e-38
0.03125 0.453125 -0.09375 2.341806413e-38
0.03125 0.453125 -0.078125 2.341806413e-38
0.03125 0.453125 -0.0625 2.341806413e-38
0.03125 0.453125 -0.046875 2.341806413e-38
0.03125 0.453125 -0.03125 2.341806413e-38
0.046875 0.390625 -0.09375 2.341806413e-38
0.046875 0.390625 -0.078125 2.341806413e-38
0.046875 0.390625 -0.0625 2.341806413e-38
0.046875 0.390625 -0.046875 2.341806413e-38
0.046875 0.390625 -0.03125 2.341806413e-38
0.046875 0.40625 -0.125 2.341806413e-38
0.046875 0.40625 -0.109375 2.341806413e-38
0.046875 0.40625 -0.09375 2.341806413e-38
0.046875 0.40625 -0.078125 2.341806413e-38
0.046875 0.40625 -0.0625 2.341806413e-38
0.046875 0.40625 -0.046875 2.341806413e-38
0.046875 0.40625 -0.03125 2.341806413e-38
0.046875 0.421875 -0.15625 2.341806413e-38
0.046875 0.421875 -0.140625 2.341806413e-38
0.046875 0.421875 -0.125 2.341806413e-38
0.046875 0.421875 -0.109375 2.341806413e-38
0.046875 0.421875 -0.09375 2.341806413e-38
0.046875 0.421875 -0.078125 2.341806413e-38
0.046875 0.421875 -0.0625 2.341806413e-38
0.046875 0.421875 -0.046875 2.341806413e-38
0.046875 0.421875 -0.03125 2.341806413e-38
0.046875 0.4375 -0.15625 2.341806413e-38
0.046875 0.4375 -0.140625 2.341806413e-38
0.046875 0.4375 -0.125 2.341806413e-38
0.046875 0.4375 -0.109375 2.341806413e-38
0.046875 0.4375 -0.09375 2.341806413e-38
0.046875 0.4375 -0.078125 2.341806413e-38
0.046875 0.4375 -0.0625 2.341806413e-38
0.046875 0.4375 -0.046875 2.341806413e-38
0.046875 0.4375 -0.03125 2.341806413e-38
0.046875 0.4375 -0.015625 2.341806413e-38
0.046875 0.453125 -0.125 2.341806413e-38
0.046875 0.453125 -0.109375 2.341806413e-38
0.046875 0.453125 -0.09375 2.341806413e-38
0.046875 0.453125 -0.078125 2.341806413e-38
0.046875 0.453125 -0.0625 2.341806413e-38
0.046875 0.453125 -0.046875 2.341806413e-38
0.046875 0.453125 -0.03125 2.341806413e-38
0.0625 0.390625 -0.125 2.341806413e-38
0.0625 0.390625 -0.109375 2.341806413e-38
0.0625 0.390625 -0.09375 2.341806413e-38
0.0625 0.390625 -0.078125 2.341806413e-38
0.0625 0.390625 -0.0625 2.341806413e-38
0.0625 0.390625 -0.046875 2.341806413e-38
0.0625 0.390625 -0.03125 2.341806413e-38
0.0625 0.40625 -0.125 2.341806413e-38
0.0625 0.40625 -0.109375 2.341806413e-38
0.0625 0.40625 -0.09375 2.341806413e-38
0.0625 0.40625 -0.078125 2.341806413e-38
0.0625 0.40625 -0.0625 2.341806413e-38
0.0625 0.40625 -0.046875 2.341806413e-38
0.0625 0.40625 -0.03125 2.341806413e-38
0.0625 0.40625 -0.015625 2.341806413e-38
0.0625 0.421875 -0.140625 2.341806413e-38
0.0625 0.421875 -0.125 2.341806413e-38
0.0625 0.421875 -0.109375 2.341806413e-38
0.0625 0.421875 -0.09375 2.341806413e-38
0.0625 0.421875 -0.078125 2.341806413e-38
0.0625 0.421875 -0.0625 2.341806413e-38
0.0625 0.421875 -0.046875 2.341806413e-38
0.0625 0.421875 -0.03125 2.341806413e-38
0.0625 0.421875 -0.015625 2.341806413e-38
0.0625 0.4375 -0.140625 2.341806413e-38
0.0625 0.4375 -0.125 2.341806413e-38
0.0625 0.4375 -0.109375 2.341806413e-38
0.0625 0.4375 -0.09375 2.341806413e-38
0.0625 0.4375 -0.078125 2.341806413e-38
0.0625 0.4375 -0.0625 2.341806413e-38
0.0625 0.4375 -0.046875 2.341806413e-38
0.0625 0.4375 -0.03125 2.341806413e-38
0.0625 0.4375 -0.015625 2.341806413e-38
0.0625 0.453125 -0.109375 2.341806413e-38
0.0625 0.453125 -0.09375 2.341806413e-38
0.0625 0.453125 -0.078125 2.341806413e-38
0.0625 0.453125 -0.0625 2.341806413e-38
0.0625 0.453125 -0.046875 2.341806413e-38
0.0625 0.453125 -0.03125 2.341806413e-38
0.078125 0.390625 -0.0625 2.341806413e-38
0.078125 0.390625 -0.046875 2.341806413e-38
0.078125 0.390625 -0.03125 2.341806413e-38
0.078125 0.40625 -0.0625 2.341806413e-38
0.078125 0.40625 -0.046875 2.341806413e-38
0.078125 0.40625 -0.03125 2.341806413e-38
0.078125 0.421875 -0.109375 2.341806413e-38
0.078125 0.421875 -0.09375 2.341806413e-38
0.078125 0.421875 -0.078125 2.341806413e-38
0.078125 0.421875 -0.0625 2.341806413e-38
0.078125 0.421875 -0.046875 2.341806413e-38
0.078125 0.421875 -0.03125 2.341806413e-38
0.078125 0.4375 -0.09375 2.341806413e-38
0.078125 0.4375 -0.078125 2.341806413e-38
0.078125 0.4375 -0.0625 2.341806413e-38
0.078125 0.4375 -0.046875 2.341806413e-38
0.078125 0.4375 -0.03125 2.341806413e-38
