# .PCD v0.7 - Point Cloud Data file format
VERSION 0.7
FIELDS x y z rgb
SIZE 4 4 4 4
TYPE F F F F
COUNT 1 1 1 1
WIDTH 281
HEIGHT 1
VIEWPOINT 0 0 0 1 0 0 0
POINTS 281
DATA ascii
0.03125 -0.40625 0.140625 9.174020786e-41
0.03125 -0.390625 0.140625 4.591416075e-39
0.046875 -0.484375 0.125 2.341806413e-38
0.046875 -0.46875 0.125 9.174020786e-41
0.046875 -0.453125 0.125 9.174020786e-41
0.046875 -0.453125 0.140625 9.174020786e-41
0.046875 -0.4375 0.140625 9.174020786e-41
0.046875 -0.421875 0.140625 9.174020786e-41
0.046875 -0.40625 0.140625 9.174020786e-41
0.046875 -0.390625 0.140625 9.174020786e-41
0.0625 -0.484375 0.015625 2.341806413e-38
0.0625 -0.484375 0.125 9.174020786e-41
0.0625 -0.46875 0.125 9.174020786e-41
0.0625 -0.46875 0.140625 9.174020786e-41
0.0625 -0.453125 0.140625 9.174020786e-41
0.0625 -0.4375 0.140625 9.174020786e-41
0.0625 -0.421875 0.140625 9.174020786e-41
0.0625 -0.40625 0.140625 9.174020786e-41
0.0625 -0.390625 0.140625 9.174020786e-41
0.0625 -0.375 0.140625 9.174020786e-41
0.078125 -0.46875 0.125 9.174020786e-41
0.078125 -0.46875 0.140625 9.174020786e-41
0.078125 -0.453125 0.140625 9.174020786e-41
0.078125 -0.4375 0.140625 9.174020786e-41
0.078125 -0.421875 0.140625 9.174020786e-41
0.078125 -0.40625 0.140625 9.174020786e-41
0.078125 -0.390625 0.125 9.174020786e-41
0.078125 -0.390625 0.140625 9.174020786e-41
0.078125 -0.375 0.125 9.174020786e-41
0.078125 -0.375 0.140625 9.174020786e-41
0.09375 -0.484375 0.015625 2.341806413e-38
0.09375 -0.484375 0.03125 2.341806413e-38
0.09375 -0.484375 0.046875 2.341806413e-38
0.09375 -0.46875 0 2.349840758e-38
0.09375 -0.46875 0.015625 2.349840758e-38
0.09375 -0.46875 0.03125 2.341806413e-38
0.09375 -0.46875 0.046875 2.341806413e-38
0.09375 -0.453125 0.125 4.591416075e-39
0.09375 -0.453125 0.140625 9.174020786e-41
0.09375 -0.4375 0.140625 9.174020786e-41
0.09375 -0.421875 0.140625 9.174020786e-41
0.09375 -0.40625 0.140625 9.174020786e-41
0.09375 -0.390625 0.125 9.174020786e-41
0.09375 -0.390625 0.140625 9.174020786e-41
0.09375 -0.375 0.125 9.174020786e-41
0.109375 -0.484375 0.046875 2.341806413e-38
0.109375 -0.484375 0.0625 2.341806413e-38
0.109375 -0.46875 0 2.349840758e-38
0.109375 -0.46875 0.015625 2.349840758e-38
0.109375 -0.46875 0.03125 2.349840758e-38
0.109375 -0.46875 0.046875 2.341806413e-38
0.109375 -0.46875 0.0625 2.341806413e-38
0.109375 -0.46875 0.078125 2.341806413e-38
0.109375 -0.453125 0.125 9.174020786e-41
0.109375 -0.453125 0.140625 9.174020786e-41
0.109375 -0.4375 0.125 9.174020786e-41
0.109375 -0.4375 0.140625 9.174020786e-41
0.109375 -0.421875 0.125 9.174020786e-41
0.109375 -0.421875 0.140625 9.174020786e-41
0.109375 -0.40625 0.125 4.591416075e-39
0.109375 -0.40625 0.140625 9.174020786e-41
0.109375 -0.390625 0.125 9.174020786e-41
0.109375 -0.390625 0.140625 9.174020786e-41
0.109375 -0.375 0.125 9.174020786e-41
0.109375 -0.359375 0.125 9.174020786e-41
0.109375 -0.359375 0.140625 9.174020786e-41
0.125 -0.46875 0.015625 2.349840758e-38
0.125 -0.46875 0.03125 2.349840758e-38
0.125 -0.46875 0.046875 2.341806413e-38
0.125 -0.46875 0.0625 2.341806413e-38
0.125 -0.46875 0.078125 2.341806413e-38
0.125 -0.453125 -0.109375 4.591416075e-39
0.125 -0.453125 -0.0625 2.349840758e-38
0.125 -0.453125 -0.046875 4.591416075e-39
0.125 -0.453125 -0.03125 2.349840758e-38
0.125 -0.453125 -0.015625 4.591416075e-39
0.125 -0.453125 0 4.591416075e-39
0.125 -0.453125 0.015625 4.591416075e-39
0.125 -0.453125 0.03125 4.591416075e-39
0.125 -0.453125 0.125 9.174020786e-41
0.125 -0.4375 0.125 9.174020786e-41
0.125 -0.4375 0.140625 9.174020786e-41
0.125 -0.421875 0.125 4.591416075e-39
0.125 -0.421875 0.140625 9.174020786e-41
0.125 -0.40625 0.125 9.174020786e-41
0.125 -0.40625 0.140625 9.174020786e-41
0.125 -0.390625 0.125 9.174020786e-41
0.125 -0.390625 0.140625 9.174020786e-41
0.125 -0.375 0.109375 4.591416075e-39
0.125 -0.375 0.125 9.174020786e-41
0.125 -0.359375 0.109375 4.591416075e-39
0.125 -0.359375 0.125 9.174020786e-41
0.125 -0.359375 0.140625 9.174020786e-41
0.125 -0.34375 0.125 9.174020786e-41
0.140625 -0.46875 0.03125 2.349840758e-38
0.140625 -0.46875 0.046875 2.341806413e-38
0.140625 -0.453125 -0.109375 4.591416075e-39
0.140625 -0.453125 -0.09375 2.349840758e-38
0.140625 -0.453125 -0.078125 4.591416075e-39
0.140625 -0.453125 -0.0625 4.591416075e-39
0.140625 -0.453125 -0.046875 4.591416075e-39
0.140625 -0.453125 -0.03125 4.591416075e-39
0.140625 -0.453125 -0.015625 4.591416075e-39
0.140625 -0.453125 0 7.530151953e-39
0.140625 -0.453125 0.015625 4.591416075e-39
0.140625 -0.453125 0.03125 4.591416075e-39
0.140625 -0.4375 -0.15625 2.34266611e-38
0.140625 -0.4375 -0.109375 2.349840758e-38
0.140625 -0.4375 -0.015625 7.530151953e-39
0.140625 -0.4375 0.125 9.174020786e-41
0.140625 -0.421875 0.125 9.174020786e-41
0.140625 -0.40625 0.109375 4.591416075e-39
0.140625 -0.40625 0.125 9.174020786e-41
0.140625 -0.390625 0.109375 4.591416075e-39
0.140625 -0.390625 0.125 9.174020786e-41
0.140625 -0.375 0.109375 4.591416075e-39
0.140625 -0.375 0.125 9.174020786e-41
0.140625 -0.359375 0.109375 4.591416075e-39
0.140625 -0.359375 0.125 9.174020786e-41
0.140625 -0.359375 0.140625 9.174020786e-41
0.140625 -0.34375 0.109375 4.591416075e-39
0.140625 -0.34375 0.125 9.174020786e-41
0.140625 -0.328125 0.109375 4.591416075e-39
0.140625 -0.328125 0.125 9.174020786e-41
0.15625 -0.453125 -0.015625 4.591416075e-39
0.15625 -0.453125 0 4.591416075e-39
0.15625 -0.453125 0.015625 4.591416075e-39
0.15625 -0.453125 0.03125 7.530151953e-39
0.15625 -0.4375 -0.140625 2.349840758e-38
0.15625 -0.4375 -0.125 4.591416075e-39
0.15625 -0.4375 -0.109375 4.591416075e-39
0.15625 -0.4375 -0.09375 4.591416075e-39
0.15625 -0.4375 -0.078125 4.591416075e-39
0.15625 -0.4375 -0.0625 4.591416075e-39
0.15625 -0.4375 -0.046875 7.530151953e-39
0.15625 -0.4375 -0.03125 7.530151953e-39
0.15625 -0.4375 -0.015625 4.591416075e-39
0.15625 -0.4375 0 7.530151953e-39
0.15625 -0.4375 0.015625 7.530151953e-39
0.15625 -0.4375 0.03125 7.530151953e-39
0.15625 -0.4375 0.046875 4.591416075e-39
0.15625 -0.4375 0.109375 4.591416075e-39
0.15625 -0.4375 0.125 9.174020786e-41
0.15625 -0.421875 -0.15625 2.34266611e-38
0.15625 -0.421875 -0.140625 2.34632518e-38
0.15625 -0.421875 0.125 9.174020786e-41
0.15625 -0.40625 0.109375 4.591416075e-39
0.15625 -0.40625 0.125 9.174020786e-41
0.15625 -0.390625 0.109375 4.591416075e-39
0.15625 -0.390625 0.125 9.174020786e-41
0.15625 -0.375 0.109375 4.591416075e-39
0.15625 -0.375 0.125 9.174020786e-41
0.15625 -0.359375 0.109375 4.591416075e-39
0.15625 -0.359375 0.125 9.174020786e-41
0.15625 -0.34375 0.109375 4.591416075e-39
0.15625 -0.34375 0.125 9.174020786e-41
0.15625 -0.328125 0.109375 4.591416075e-39
0.15625 -0.328125 0.125 9.174020786e-41
0.15625 -0.3125 0.109375 4.591416075e-39
0.171875 -0.4375 -0.125 2.349840758e-38
0.171875 -0.4375 -0.109375 2.349840758e-38
0.171875 -0.4375 -0.09375 2.349840758e-38
0.171875 -0.4375 -0.078125 2.349840758e-38
0.171875 -0.4375 -0.0625 7.530151953e-39
0.171875 -0.4375 -0.046875 2.349840758e-38
0.171875 -0.4375 -0.03125 7.530151953e-39
0.171875 -0.4375 -0.015625 7.530151953e-39
0.171875 -0.4375 0 7.530151953e-39
0.171875 -0.4375 0.015625 7.530151953e-39
0.171875 -0.4375 0.03125 7.530151953e-39
0.171875 -0.4375 0.125 9.174020786e-41
0.171875 -0.421875 -0.15625 2.34266611e-38
0.171875 -0.421875 -0.140625 2.34632518e-38
0.171875 -0.421875 -0.125 2.34632518e-38
0.171875 -0.421875 -0.109375 2.349840758e-38
0.171875 -0.421875 0.03125 7.530151953e-39
0.171875 -0.421875 0.109375 4.591416075e-39
0.171875 -0.421875 0.125 9.174020786e-41
0.171875 -0.40625 0.109375 4.591416075e-39
0.171875 -0.40625 0.125 9.174020786e-41
0.171875 -0.390625 0.109375 4.591416075e-39
0.171875 -0.390625 0.125 9.174020786e-41
0.171875 -0.375 0.109375 4.591416075e-39
0.171875 -0.375 0.125 9.174020786e-41
0.171875 -0.359375 0.109375 4.591416075e-39
0.171875 -0.359375 0.125 9.174020786e-41
0.171875 -0.34375 0.109375 4.591416075e-39
0.171875 -0.328125 0.109375 9.174020786e-41
0.1875 -0.4375 -0.125 2.349840758e-38
0.1875 -0.4375 -0.109375 2.349840758e-38
0.1875 -0.4375 -0.09375 2.349840758e-38
0.1875 -0.4375 -0.078125 2.349840758e-38
0.1875 -0.4375 -0.0625 2.347508997e-38
0.1875 -0.4375 -0.046875 2.349840758e-38
0.1875 -0.4375 -0.03125 7.530151953e-39
0.1875 -0.4375 -0.015625 4.591416075e-39
0.1875 -0.4375 0 7.530151953e-39
0.1875 -0.4375 0.015625 4.591416075e-39
0.1875 -0.4375 0.03125 7.530151953e-39
0.1875 -0.4375 0.109375 4.591416075e-39
0.1875 -0.4375 0.125 4.591416075e-39
0.1875 -0.421875 -0.15625 2.34266611e-38
0.1875 -0.421875 -0.140625 2.349840758e-38
0.1875 -0.421875 -0.125 2.349840758e-38
0.1875 -0.421875 -0.109375 2.349840758e-38
0.1875 -0.421875 -0.09375 2.349840758e-38
0.1875 -0.421875 -0.078125 7.530151953e-39
0.1875 -0.421875 -0.0625 2.349840758e-38
0.1875 -0.421875 -0.046875 7.530151953e-39
0.1875 -0.421875 0.03125 7.530151953e-39
0.1875 -0.421875 0.109375 4.591416075e-39
0.1875 -0.421875 0.125 9.174020786e-41
0.1875 -0.40625 -0.15625 2.34266611e-38
0.1875 -0.40625 0.109375 4.591416075e-39
0.1875 -0.40625 0.125 9.174020786e-41
0.1875 -0.390625 0.109375 4.591416075e-39
0.1875 -0.390625 0.125 9.174020786e-41
0.1875 -0.375 0.109375 4.591416075e-39
0.1875 -0.375 0.125 9.174020786e-41
0.1875 -0.359375 0.109375 4.591416075e-39
0.1875 -0.34375 0.109375 4.591416075e-39
0.203125 -0.4375 -0.046875 2.349840758e-38
0.203125 -0.4375 -0.03125 7.530151953e-39
0.203125 -0.4375 -0.015625 2.349840758e-38
0.203125 -0.4375 0 7.530151953e-39
0.203125 -0.4375 0.015625 7.530151953e-39
0.203125 -0.4375 0.03125 7.530151953e-39
0.203125 -0.421875 -0.15625 2.34266611e-38
0.203125 -0.421875 -0.140625 2.349840758e-38
0.203125 -0.421875 -0.125 2.349840758e-38
0.203125 -0.421875 -0.109375 2.349840758e-38
0.203125 -0.421875 -0.09375 2.349840758e-38
0.203125 -0.421875 -0.078125 2.349840758e-38
0.203125 -0.421875 -0.0625 2.349840758e-38
0.203125 -0.421875 -0.046875 2.349840758e-38
0.203125 -0.421875 -0.03125 2.349840758e-38
0.203125 -0.421875 -0.015625 7.530151953e-39
0.203125 -0.421875 0 7.530151953e-39
0.203125 -0.421875 0.015625 7.530151953e-39
0.203125 -0.421875 0.109375 4.591416075e-39
0.203125 -0.40625 -0.15625 2.34266611e-38
0.203125 -0.40625 -0.140625 2.349840758e-38
0.203125 -0.40625 0.109375 4.591416075e-39
0.203125 -0.40625 0.125 4.591416075e-39
0.203125 -0.390625 0.109375 9.174020786e-41
0.203125 -0.390625 0.125 9.174020786e-41
0.203125 -0.375 0.109375 4.591416075e-39
0.203125 -0.359375 0.109375 4.591416075e-39
0.21875 -0.4375 -0.015625 2.349840758e-38
0.21875 -0.421875 -0.15625 2.34266611e-38
0.21875 -0.421875 -0.140625 2.349840758e-38
0.21875 -0.421875 -0.125 2.349840758e-38
0.21875 -0.421875 -0.109375 2.349840758e-38
0.21875 -0.421875 -0.09375 2.349840758e-38
0.21875 -0.421875 -0.078125 2.349840758e-38
0.21875 -0.421875 -0.0625 2.349840758e-38
0.21875 -0.421875 -0.046875 2.349840758e-38
0.21875 -0.421875 -0.03125 2.349840758e-38
0.21875 -0.421875 -0.015625 7.530151953e-39
0.21875 -0.421875 0 7.530151953e-39
0.21875 -0.421875 0.015625 7.530151953e-39
0.21875 -0.421875 0.03125 7.530151953e-39
0.21875 -0.421875 0.109375 4.591416075e-39
0.21875 -0.40625 0.109375 4.591416075e-39
0.21875 -0.390625 0.109375 4.591416075e-39
0.21875 -0.375 0.109375 4.591416075e-39
0.234375 -0.4375 0.03125 7.530151953e-39
0.234375 -0.421875 -0.09375 2.349840758e-38
0.234375 -0.421875 -0.078125 2.349840758e-38
0.234375 -0.421875 -0.0625 2.349840758e-38
0.234375 -0.421875 -0.046875 2.349840758e-38
0.234375 -0.421875 -0.03125 2.349840758e-38
0.234375 -0.421875 -0.015625 2.349840758e-38
0.234375 -0.421875 0 2.349840758e-38
0.234375 -0.421875 0.015625 7.530151953e-39
0.234375 -0.421875 0.03125 7.530151953e-39
0.234375 -0.40625 0.015625 2.341806413e-38
0.234375 -0.40625 0.046875 2.341806413e-38
0.234375 -0.40625 0.078125 2.341806413e-38
0.234375 -0.40625 0.109375 4.591416075e-39
0.234375 -0.390625 0.109375 4.591416075e-39
