# .PCD v0.7 - Point Cloud Data file format
VERSION 0.7
FIELDS x y z rgb
SIZE 4 4 4 4
TYPE F F F F
COUNT 1 1 1 1
WIDTH 1143
HEIGHT 1
VIEWPOINT 0 0 0 1 0 0 0
POINTS 1143
DATA ascii
-0.21875 -0.140625 -0.015625 2.332657336e-38
-0.21875 -0.140625 0 2.332657336e-38
-0.21875 -0.140625 0.015625 2.332657336e-38
-0.21875 -0.125 -0.21875 2.34266611e-38
-0.21875 -0.109375 -0.21875 2.34266611e-38
-0.21875 -0.09375 -0.21875 2.34266611e-38
-0.21875 -0.078125 -0.21875 2.34266611e-38
-0.21875 -0.0625 -0.21875 2.34266611e-38
-0.21875 -0.015625 -0.21875 2.34266611e-38
-0.203125 -0.28125 -0.21875 2.34266611e-38
-0.203125 -0.265625 -0.21875 2.34266611e-38
-0.203125 -0.25 -0.21875 2.34266611e-38
-0.203125 -0.234375 -0.21875 2.34266611e-38
-0.203125 -0.21875 -0.21875 2.34266611e-38
-0.203125 -0.203125 -0.21875 2.34266611e-38
-0.203125 -0.1875 -0.21875 2.34266611e-38
-0.203125 -0.171875 -0.21875 2.34266611e-38
-0.203125 -0.15625 -0.21875 2.34266611e-38
-0.203125 -0.15625 -0.171875 2.332657336e-38
-0.203125 -0.15625 -0.15625 2.332657336e-38
-0.203125 -0.15625 -0.140625 2.332657336e-38
-0.203125 -0.15625 -0.125 2.332657336e-38
-0.203125 -0.15625 -0.109375 2.332657336e-38
-0.203125 -0.15625 -0.09375 2.332657336e-38
-0.203125 -0.15625 -0.078125 2.332657336e-38
-0.203125 -0.15625 -0.0625 2.332657336e-38
-0.203125 -0.140625 -0.21875 2.34266611e-38
-0.203125 -0.140625 -0.203125 2.332657336e-38
-0.203125 -0.140625 -0.1875 2.332657336e-38
-0.203125 -0.140625 -0.171875 2.332657336e-38
-0.203125 -0.140625 -0.15625 2.332657336e-38
-0.203125 -0.140625 -0.140625 2.332657336e-38
-0.203125 -0.140625 -0.125 2.332657336e-38
-0.203125 -0.140625 -0.109375 2.332657336e-38
-0.203125 -0.140625 -0.09375 2.332657336e-38
-0.203125 -0.140625 -0.078125 2.332657336e-38
-0.203125 -0.140625 -0.0625 2.332657336e-38
-0.203125 -0.140625 -0.046875 2.332657336e-38
-0.203125 -0.140625 -0.03125 2.332657336e-38
-0.203125 -0.140625 -0.015625 2.332657336e-38
-0.203125 -0.140625 0 2.332657336e-38
-0.203125 -0.125 -0.21875 2.34266611e-38
-0.203125 -0.125 0 2.332657336e-38
-0.203125 -0.109375 -0.21875 2.34266611e-38
-0.203125 -0.09375 -0.21875 2.34266611e-38
-0.203125 -0.078125 -0.21875 2.34266611e-38
-0.203125 -0.0625 -0.21875 2.34266611e-38
-0.203125 -0.046875 -0.21875 2.34266611e-38
-0.203125 -0.03125 -0.21875 2.34266611e-38
-0.203125 -0.015625 -0.21875 2.34266611e-38
-0.203125 0.015625 -0.21875 2.34266611e-38
-0.1875 -0.296875 -0.21875 2.34266611e-38
-0.1875 -0.28125 -0.21875 2.34266611e-38
-0.1875 -0.265625 -0.21875 2.34266611e-38
-0.1875 -0.25 -0.21875 2.34266611e-38
-0.1875 -0.234375 -0.21875 2.34266611e-38
-0.1875 -0.21875 -0.21875 2.34266611e-38
-0.1875 -0.203125 -0.21875 2.34266611e-38
-0.1875 -0.1875 -0.21875 2.34266611e-38
-0.1875 -0.171875 -0.21875 2.34266611e-38
-0.1875 -0.15625 -0.21875 2.34266611e-38
-0.1875 -0.140625 -0.21875 2.34266611e-38
-0.1875 -0.140625 -0.203125 2.332657336e-38
-0.1875 -0.140625 -0.1875 2.332657336e-38
-0.1875 -0.140625 -0.171875 2.332657336e-38
-0.1875 -0.140625 -0.15625 2.332657336e-38
-0.1875 -0.140625 -0.140625 2.332657336e-38
-0.1875 -0.140625 -0.125 2.332657336e-38
-0.1875 -0.140625 -0.109375 2.332657336e-38
-0.1875 -0.140625 -0.09375 2.332657336e-38
-0.1875 -0.140625 -0.078125 2.332657336e-38
-0.1875 -0.140625 -0.0625 2.332657336e-38
-0.1875 -0.140625 -0.046875 2.332657336e-38
-0.1875 -0.140625 -0.03125 2.332657336e-38
-0.1875 -0.140625 -0.015625 2.332657336e-38
-0.1875 -0.125 -0.21875 2.34266611e-38
-0.1875 -0.125 -0.203125 2.332657336e-38
-0.1875 -0.125 -0.1875 2.332657336e-38
-0.1875 -0.125 -0.078125 2.332657336e-38
-0.1875 -0.125 -0.0625 2.332657336e-38
-0.1875 -0.125 -0.046875 2.332657336e-38
-0.1875 -0.125 -0.03125 2.332657336e-38
-0.1875 -0.125 -0.015625 2.332657336e-38
-0.1875 -0.125 0 2.332657336e-38
-0.1875 -0.109375 -0.21875 2.34266611e-38
-0.1875 -0.09375 -0.21875 2.34266611e-38
-0.1875 -0.078125 -0.21875 2.34266611e-38
-0.1875 -0.0625 -0.21875 2.34266611e-38
-0.1875 -0.046875 -0.21875 2.34266611e-38
-0.1875 -0.03125 -0.21875 2.34266611e-38
-0.1875 -0.015625 -0.21875 2.34266611e-38
-0.1875 0 -0.21875 2.34266611e-38
-0.1875 0.015625 -0.21875 2.34266611e-38
-0.1875 0.03125 -0.21875 2.34266611e-38
-0.171875 -0.296875 -0.21875 2.34266611e-38
-0.171875 -0.28125 -0.21875 2.34266611e-38
-0.171875 -0.265625 -0.21875 2.34266611e-38
-0.171875 -0.25 -0.21875 2.34266611e-38
-0.171875 -0.234375 -0.21875 2.34266611e-38
-0.171875 -0.21875 -0.21875 2.34266611e-38
-0.171875 -0.203125 -0.21875 2.34266611e-38
-0.171875 -0.1875 -0.21875 2.34266611e-38
-0.171875 -0.171875 -0.21875 2.34266611e-38
-0.171875 -0.15625 -0.21875 2.34266611e-38
-0.171875 -0.140625 -0.21875 2.34266611e-38
-0.171875 -0.140625 -0.171875 2.332657336e-38
-0.171875 -0.140625 -0.15625 2.332657336e-38
-0.171875 -0.140625 -0.140625 2.332657336e-38
-0.171875 -0.140625 -0.125 2.332657336e-38
-0.171875 -0.140625 -0.109375 2.332657336e-38
-0.171875 -0.140625 -0.09375 2.332657336e-38
-0.171875 -0.140625 -0.078125 2.332657336e-38
-0.171875 -0.125 -0.21875 2.34266611e-38
-0.171875 -0.125 -0.1875 2.332657336e-38
-0.171875 -0.125 -0.171875 2.332657336e-38
-0.171875 -0.125 -0.15625 2.332657336e-38
-0.171875 -0.125 -0.140625 2.332657336e-38
-0.171875 -0.125 -0.125 2.332657336e-38
-0.171875 -0.125 -0.109375 2.332657336e-38
-0.171875 -0.125 -0.09375 2.332657336e-38
-0.171875 -0.125 -0.078125 2.332657336e-38
-0.171875 -0.125 -0.0625 2.332657336e-38
-0.171875 -0.125 -0.046875 2.332657336e-38
-0.171875 -0.125 -0.03125 2.332657336e-38
-0.171875 -0.125 -0.015625 2.332657336e-38
-0.171875 -0.125 0 2.332657336e-38
-0.171875 -0.109375 -0.046875 2.332657336e-38
-0.171875 -0.109375 -0.03125 2.332657336e-38
-0.171875 -0.109375 -0.015625 2.332657336e-38
-0.171875 -0.109375 0 2.332657336e-38
-0.171875 -0.09375 -0.21875 2.34266611e-38
-0.171875 -0.078125 -0.21875 2.34266611e-38
-0.171875 -0.0625 -0.21875 2.34266611e-38
-0.171875 -0.046875 -0.21875 2.34266611e-38
-0.171875 -0.03125 -0.21875 2.34266611e-38
-0.171875 -0.015625 -0.21875 2.34266611e-38
-0.171875 0 -0.21875 2.34266611e-38
-0.171875 0.015625 -0.21875 2.34266611e-38
-0.171875 0.03125 -0.21875 2.34266611e-38
-0.171875 0.046875 -0.21875 2.34266611e-38
-0.171875 0.0625 -0.21875 2.34266611e-38
-0.15625 -0.296875 -0.21875 2.34266611e-38
-0.15625 -0.28125 -0.21875 2.34266611e-38
-0.15625 -0.265625 -0.21875 2.34266611e-38
-0.15625 -0.25 -0.21875 2.34266611e-38
-0.15625 -0.234375 -0.21875 2.34266611e-38
-0.15625 -0.21875 -0.21875 2.34266611e-38
-0.15625 -0.203125 -0.21875 2.34266611e-38
-0.15625 -0.1875 -0.21875 2.34266611e-38
-0.15625 -0.171875 -0.21875 2.34266611e-38
-0.15625 -0.140625 -0.21875 2.34266611e-38
-0.15625 -0.125 -0.203125 2.332657336e-38
-0.15625 -0.125 -0.1875 2.332657336e-38
-0.15625 -0.125 -0.171875 2.332657336e-38
-0.15625 -0.125 -0.15625 2.332657336e-38
-0.15625 -0.125 -0.140625 2.332657336e-38
-0.15625 -0.125 -0.125 2.332657336e-38
-0.15625 -0.125 -0.109375 2.332657336e-38
-0.15625 -0.125 -0.09375 2.332657336e-38
-0.15625 -0.125 -0.078125 2.332657336e-38
-0.15625 -0.125 -0.0625 2.332657336e-38
-0.15625 -0.125 -0.046875 2.332657336e-38
-0.15625 -0.109375 -0.1875 2.332657336e-38
-0.15625 -0.109375 -0.171875 2.332657336e-38
-0.15625 -0.109375 -0.09375 2.332657336e-38
-0.15625 -0.109375 -0.078125 2.332657336e-38
-0.15625 -0.109375 -0.0625 2.332657336e-38
-0.15625 -0.109375 -0.046875 2.332657336e-38
-0.15625 -0.109375 -0.03125 2.332657336e-38
-0.15625 -0.109375 -0.015625 2.332657336e-38
-0.15625 -0.109375 0 2.332657336e-38
-0.15625 -0.09375 -0.21875 2.34266611e-38
-0.15625 -0.078125 -0.21875 2.34266611e-38
-0.15625 -0.0625 -0.21875 2.34266611e-38
-0.15625 -0.046875 -0.21875 2.34266611e-38
-0.15625 -0.03125 -0.21875 2.34266611e-38
-0.15625 -0.015625 -0.21875 2.34266611e-38
-0.15625 0 -0.21875 2.34266611e-38
-0.15625 0.015625 -0.21875 2.34266611e-38
-0.15625 0.03125 -0.21875 2.34266611e-38
-0.15625 0.046875 -0.21875 2.34266611e-38
-0.15625 0.0625 -0.21875 2.34266611e-38
-0.140625 -0.296875 -0.21875 2.34266611e-38
-0.140625 -0.28125 -0.21875 2.34266611e-38
-0.140625 -0.28125 -0.203125 2.34266611e-38
-0.140625 -0.265625 -0.21875 2.34266611e-38
-0.140625 -0.25 -0.21875 2.34266611e-38
-0.140625 -0.234375 -0.21875 2.34266611e-38
-0.140625 -0.21875 -0.21875 2.34266611e-38
-0.140625 -0.171875 -0.21875 2.34266611e-38
-0.140625 -0.15625 -0.21875 2.34266611e-38
-0.140625 -0.125 -0.203125 2.332657336e-38
-0.140625 -0.125 -0.1875 2.332657336e-38
-0.140625 -0.125 -0.15625 2.332657336e-38
-0.140625 -0.125 -0.140625 2.332657336e-38
-0.140625 -0.125 -0.125 2.332657336e-38
-0.140625 -0.125 -0.109375 2.332657336e-38
-0.140625 -0.109375 -0.21875 2.34266611e-38
-0.140625 -0.109375 -0.203125 2.332657336e-38
-0.140625 -0.109375 -0.1875 2.332657336e-38
-0.140625 -0.109375 -0.171875 2.332657336e-38
-0.140625 -0.109375 -0.15625 2.332657336e-38
-0.140625 -0.109375 -0.140625 2.332657336e-38
-0.140625 -0.109375 -0.125 2.332657336e-38
-0.140625 -0.109375 -0.109375 2.332657336e-38
-0.140625 -0.109375 -0.09375 2.332657336e-38
-0.140625 -0.109375 -0.078125 2.332657336e-38
-0.140625 -0.109375 -0.0625 2.332657336e-38
-0.140625 -0.109375 -0.046875 2.332657336e-38
-0.140625 -0.109375 -0.03125 2.332657336e-38
-0.140625 -0.109375 -0.015625 2.332657336e-38
-0.140625 -0.109375 0 2.332657336e-38
-0.140625 -0.09375 -0.21875 2.34266611e-38
-0.140625 -0.09375 -0.078125 2.332657336e-38
-0.140625 -0.09375 -0.046875 2.332657336e-38
-0.140625 -0.09375 -0.03125 2.332657336e-38
-0.140625 -0.09375 -0.015625 2.332657336e-38
-0.140625 -0.09375 0 2.332657336e-38
-0.140625 -0.078125 -0.21875 2.34266611e-38
-0.140625 -0.0625 -0.21875 2.34266611e-38
-0.140625 -0.046875 -0.21875 2.34266611e-38
-0.140625 -0.03125 -0.21875 2.34266611e-38
-0.140625 -0.015625 -0.21875 2.34266611e-38
-0.140625 0 -0.21875 2.34266611e-38
-0.140625 0.015625 -0.21875 2.34266611e-38
-0.140625 0.03125 -0.21875 2.34266611e-38
-0.140625 0.046875 -0.21875 2.34266611e-38
-0.140625 0.0625 -0.21875 2.34266611e-38
-0.140625 0.078125 -0.21875 2.34266611e-38
-0.125 -0.296875 -0.21875 2.34266611e-38
-0.125 -0.28125 -0.21875 2.34266611e-38
-0.125 -0.28125 -0.203125 2.34266611e-38
-0.125 -0.265625 -0.21875 2.34266611e-38
-0.125 -0.25 -0.21875 2.34266611e-38
-0.125 -0.234375 -0.21875 2.34266611e-38
-0.125 -0.21875 -0.21875 2.34266611e-38
-0.125 -0.109375 -0.21875 2.34266611e-38
-0.125 -0.109375 -0.203125 2.332657336e-38
-0.125 -0.109375 -0.1875 2.332657336e-38
-0.125 -0.109375 -0.171875 2.332657336e-38
-0.125 -0.109375 -0.15625 2.332657336e-38
-0.125 -0.109375 -0.140625 2.332657336e-38
-0.125 -0.109375 -0.125 2.332657336e-38
-0.125 -0.109375 -0.109375 2.332657336e-38
-0.125 -0.109375 -0.09375 2.332657336e-38
-0.125 -0.109375 -0.078125 2.332657336e-38
-0.125 -0.109375 -0.0625 2.332657336e-38
-0.125 -0.109375 -0.046875 2.332657336e-38
-0.125 -0.09375 -0.21875 2.34266611e-38
-0.125 -0.09375 -0.203125 2.332657336e-38
-0.125 -0.09375 -0.1875 2.332657336e-38
-0.125 -0.09375 -0.171875 2.332657336e-38
-0.125 -0.09375 -0.15625 2.332657336e-38
-0.125 -0.09375 -0.078125 2.332657336e-38
-0.125 -0.09375 -0.0625 2.332657336e-38
-0.125 -0.09375 -0.046875 2.332657336e-38
-0.125 -0.09375 -0.03125 2.332657336e-38
-0.125 -0.09375 -0.015625 2.332657336e-38
-0.125 -0.09375 0 2.332657336e-38
-0.125 -0.078125 -0.21875 2.34266611e-38
-0.125 -0.046875 -0.21875 2.34266611e-38
-0.125 -0.03125 -0.21875 2.34266611e-38
-0.125 -0.015625 -0.21875 2.34266611e-38
-0.125 0 -0.21875 2.34266611e-38
-0.125 0.015625 -0.21875 2.34266611e-38
-0.125 0.03125 -0.21875 2.34266611e-38
-0.125 0.046875 -0.21875 2.34266611e-38
-0.125 0.0625 -0.21875 2.34266611e-38
-0.125 0.078125 -0.21875 2.34266611e-38
-0.109375 -0.296875 -0.21875 2.34266611e-38
-0.109375 -0.296875 -0.203125 2.34266611e-38
-0.109375 -0.28125 -0.21875 2.34266611e-38
-0.109375 -0.28125 -0.203125 2.34266611e-38
-0.109375 -0.265625 -0.21875 2.34266611e-38
-0.109375 -0.25 -0.21875 2.34266611e-38
-0.109375 -0.234375 -0.21875 2.34266611e-38
-0.109375 -0.109375 -0.125 2.332657336e-38
-0.109375 -0.109375 -0.109375 2.332657336e-38
-0.109375 -0.109375 -0.09375 2.332657336e-38
-0.109375 -0.09375 -0.21875 2.332657336e-38
-0.109375 -0.09375 -0.203125 2.332657336e-38
-0.109375 -0.09375 -0.1875 2.332657336e-38
-0.109375 -0.09375 -0.171875 2.332657336e-38
-0.109375 -0.09375 -0.15625 2.332657336e-38
-0.109375 -0.09375 -0.140625 2.332657336e-38
-0.109375 -0.09375 -0.125 2.332657336e-38
-0.109375 -0.09375 -0.109375 2.332657336e-38
-0.109375 -0.09375 -0.09375 2.332657336e-38
-0.109375 -0.09375 -0.078125 2.332657336e-38
-0.109375 -0.09375 -0.0625 1.560844702e-39
-0.109375 -0.09375 -0.046875 2.332657336e-38
-0.109375 -0.09375 -0.03125 1.560844702e-39
-0.109375 -0.09375 -0.015625 2.332657336e-38
-0.109375 -0.09375 0 1.560844702e-39
-0.109375 -0.078125 -0.21875 2.34266611e-38
-0.109375 -0.078125 -0.203125 2.332657336e-38
-0.109375 -0.078125 -0.046875 2.332657336e-38
-0.109375 -0.078125 -0.03125 2.332657336e-38
-0.109375 -0.078125 -0.015625 2.332657336e-38
-0.109375 -0.078125 0 2.332657336e-38
-0.109375 -0.0625 -0.21875 2.34266611e-38
-0.109375 -0.03125 -0.21875 2.34266611e-38
-0.109375 -0.015625 -0.21875 2.34266611e-38
-0.109375 0 -0.21875 2.34266611e-38
-0.109375 0.015625 -0.21875 2.34266611e-38
-0.109375 0.03125 -0.21875 2.34266611e-38
-0.109375 0.046875 -0.21875 2.34266611e-38
-0.109375 0.0625 -0.21875 2.34266611e-38
-0.109375 0.078125 -0.21875 2.34266611e-38
-0.09375 -0.28125 -0.21875 2.34266611e-38
-0.09375 -0.203125 0 2.341806413e-38
-0.09375 -0.09375 -0.1875 2.332657336e-38
-0.09375 -0.09375 -0.171875 2.332657336e-38
-0.09375 -0.09375 -0.15625 2.332657336e-38
-0.09375 -0.09375 -0.140625 2.332657336e-38
-0.09375 -0.09375 -0.125 2.332657336e-38
-0.09375 -0.09375 -0.109375 2.332657336e-38
-0.09375 -0.09375 -0.09375 2.332657336e-38
-0.09375 -0.09375 -0.078125 2.332657336e-38
-0.09375 -0.09375 -0.0625 2.332657336e-38
-0.09375 -0.09375 -0.046875 2.332657336e-38
-0.09375 -0.078125 -0.21875 2.34266611e-38
-0.09375 -0.078125 -0.203125 2.332657336e-38
-0.09375 -0.078125 -0.1875 2.332657336e-38
-0.09375 -0.078125 -0.171875 2.332657336e-38
-0.09375 -0.078125 -0.15625 2.332657336e-38
-0.09375 -0.078125 -0.140625 2.332657336e-38
-0.09375 -0.078125 -0.125 2.332657336e-38
-0.09375 -0.078125 -0.109375 2.332657336e-38
-0.09375 -0.078125 -0.09375 2.332657336e-38
-0.09375 -0.078125 -0.078125 2.332657336e-38
-0.09375 -0.078125 -0.0625 2.332657336e-38
-0.09375 -0.078125 -0.046875 2.332657336e-38
-0.09375 -0.078125 -0.03125 2.332657336e-38
-0.09375 -0.078125 -0.015625 2.332657336e-38
-0.09375 -0.078125 0 2.332657336e-38
-0.09375 -0.078125 0.015625 2.332657336e-38
-0.09375 -0.078125 0.03125 2.332657336e-38
-0.09375 -0.078125 0.046875 2.332657336e-38
-0.09375 -0.078125 0.0625 2.332657336e-38
-0.09375 -0.078125 0.078125 2.332657336e-38
-0.09375 -0.078125 0.09375 2.332657336e-38
-0.09375 -0.078125 0.109375 2.332657336e-38
-0.09375 -0.078125 0.125 2.332657336e-38
-0.09375 -0.078125 0.140625 2.332657336e-38
-0.09375 -0.078125 0.15625 2.332657336e-38
-0.09375 -0.078125 0.171875 2.332657336e-38
-0.09375 -0.078125 0.1875 2.332657336e-38
-0.09375 -0.078125 0.203125 2.332657336e-38
-0.09375 -0.0625 -0.21875 2.34266611e-38
-0.09375 -0.0625 0.171875 2.332657336e-38
-0.09375 -0.0625 0.1875 2.332657336e-38
-0.09375 -0.015625 -0.21875 2.34266611e-38
-0.09375 0 -0.21875 2.34266611e-38
-0.09375 0.015625 -0.21875 2.34266611e-38
-0.09375 0.03125 -0.21875 2.34266611e-38
-0.09375 0.046875 -0.21875 2.34266611e-38
-0.09375 0.0625 -0.21875 2.34266611e-38
-0.078125 -0.234375 0 2.341806413e-38
-0.078125 -0.21875 -0.015625 2.341806413e-38
-0.078125 -0.21875 0 2.341806413e-38
-0.078125 -0.203125 -0.03125 2.341806413e-38
-0.078125 -0.203125 -0.015625 2.341806413e-38
-0.078125 -0.203125 0 2.341806413e-38
-0.078125 -0.203125 0.015625 2.341806413e-38
-0.078125 -0.1875 0.015625 2.341806413e-38
-0.078125 -0.078125 -0.21875 2.34266611e-38
-0.078125 -0.078125 -0.203125 2.332657336e-38
-0.078125 -0.078125 -0.1875 2.332657336e-38
-0.078125 -0.078125 -0.171875 2.332657336e-38
-0.078125 -0.078125 -0.15625 2.332657336e-38
-0.078125 -0.078125 -0.140625 2.332657336e-38
-0.078125 -0.078125 -0.125 2.332657336e-38
-0.078125 -0.078125 -0.109375 2.332657336e-38
-0.078125 -0.078125 -0.09375 2.332657336e-38
-0.078125 -0.078125 -0.078125 2.332657336e-38
-0.078125 -0.078125 -0.0625 2.332657336e-38
-0.078125 -0.078125 -0.046875 2.332657336e-38
-0.078125 -0.078125 -0.03125 2.332657336e-38
-0.078125 -0.078125 -0.015625 2.332657336e-38
-0.078125 -0.078125 0 2.332657336e-38
-0.078125 -0.078125 0.015625 2.332657336e-38
-0.078125 -0.078125 0.03125 2.332657336e-38
-0.078125 -0.078125 0.046875 2.332657336e-38
-0.078125 -0.078125 0.0625 2.332657336e-38
-0.078125 -0.078125 0.078125 2.332657336e-38
-0.078125 -0.078125 0.09375 2.332657336e-38
-0.078125 -0.078125 0.109375 2.332657336e-38
-0.078125 -0.078125 0.125 2.332657336e-38
-0.078125 -0.078125 0.140625 2.332657336e-38
-0.078125 -0.078125 0.15625 2.332657336e-38
-0.078125 -0.078125 0.171875 2.332657336e-38
-0.078125 -0.078125 0.1875 2.332657336e-38
-0.078125 -0.078125 0.203125 2.332657336e-38
-0.078125 -0.0625 -0.21875 2.34266611e-38
-0.078125 -0.0625 -0.203125 2.332657336e-38
-0.078125 -0.0625 -0.09375 2.332657336e-38
-0.078125 -0.0625 -0.078125 2.332657336e-38
-0.078125 -0.0625 -0.046875 2.332657336e-38
-0.078125 -0.0625 -0.03125 2.332657336e-38
-0.078125 -0.0625 -0.015625 2.332657336e-38
-0.078125 -0.0625 0 2.332657336e-38
-0.078125 -0.0625 0.015625 2.332657336e-38
-0.078125 -0.0625 0.03125 2.332657336e-38
-0.078125 -0.0625 0.046875 2.332657336e-38
-0.078125 -0.0625 0.0625 2.332657336e-38
-0.078125 -0.0625 0.078125 2.332657336e-38
-0.078125 -0.0625 0.09375 2.332657336e-38
-0.078125 -0.0625 0.109375 2.332657336e-38
-0.078125 -0.0625 0.125 2.332657336e-38
-0.078125 -0.0625 0.140625 2.332657336e-38
-0.078125 -0.0625 0.15625 2.332657336e-38
-0.078125 -0.0625 0.171875 2.332657336e-38
-0.078125 -0.0625 0.1875 2.332657336e-38
-0.078125 -0.0625 0.203125 2.332657336e-38
-0.078125 -0.015625 -0.21875 2.34266611e-38
-0.078125 0 -0.21875 2.34266611e-38
-0.078125 0.015625 -0.21875 2.34266611e-38
-0.078125 0.03125 -0.21875 2.34266611e-38
-0.078125 0.046875 -0.21875 2.34266611e-38
-0.078125 0.0625 -0.21875 2.34266611e-38
-0.078125 0.078125 -0.21875 2.34266611e-38
-0.0625 -0.234375 -0.03125 2.341806413e-38
-0.0625 -0.234375 -0.015625 2.341806413e-38
-0.0625 -0.234375 0 2.341806413e-38
-0.0625 -0.234375 0.015625 2.341806413e-38
-0.0625 -0.234375 0.03125 2.341806413e-38
-0.0625 -0.21875 -0.03125 2.341806413e-38
-0.0625 -0.21875 -0.015625 2.341806413e-38
-0.0625 -0.21875 0 2.341806413e-38
-0.0625 -0.21875 0.015625 2.341806413e-38
-0.0625 -0.21875 0.03125 2.341806413e-38
-0.0625 -0.203125 -0.03125 2.341806413e-38
-0.0625 -0.203125 -0.015625 2.341806413e-38
-0.0625 -0.203125 0 2.341806413e-38
-0.0625 -0.203125 0.015625 2.341806413e-38
-0.0625 -0.203125 0.03125 2.341806413e-38
-0.0625 -0.203125 0.046875 2.341806413e-38
-0.0625 -0.203125 0.078125 2.341806413e-38
-0.0625 -0.1875 -0.03125 2.341806413e-38
-0.0625 -0.1875 -0.015625 2.341806413e-38
-0.0625 -0.1875 0 2.341806413e-38
-0.0625 -0.1875 0.015625 2.341806413e-38
-0.0625 -0.1875 0.03125 2.341806413e-38
-0.0625 -0.1875 0.046875 2.341806413e-38
-0.0625 -0.171875 0 2.341806413e-38
-0.0625 -0.171875 0.015625 2.341806413e-38
-0.0625 -0.171875 0.03125 2.341806413e-38
-0.0625 -0.078125 -0.203125 2.332657336e-38
-0.0625 -0.078125 -0.1875 2.332657336e-38
-0.0625 -0.078125 -0.171875 2.332657336e-38
-0.0625 -0.078125 -0.15625 2.332657336e-38
-0.0625 -0.078125 -0.140625 2.332657336e-38
-0.0625 -0.078125 -0.125 2.332657336e-38
-0.0625 -0.078125 -0.109375 2.332657336e-38
-0.0625 -0.078125 -0.09375 2.332657336e-38
-0.0625 -0.078125 -0.078125 2.332657336e-38
-0.0625 -0.078125 -0.0625 2.332657336e-38
-0.0625 -0.0625 -0.21875 2.34266611e-38
-0.0625 -0.0625 -0.203125 2.332657336e-38
-0.0625 -0.0625 -0.1875 2.332657336e-38
-0.0625 -0.0625 -0.171875 2.332657336e-38
-0.0625 -0.0625 -0.15625 2.332657336e-38
-0.0625 -0.0625 -0.09375 2.332657336e-38
-0.0625 -0.0625 -0.078125 2.332657336e-38
-0.0625 -0.0625 -0.0625 2.332657336e-38
-0.0625 -0.0625 -0.046875 2.332657336e-38
-0.0625 -0.0625 -0.03125 2.332657336e-38
-0.0625 -0.0625 -0.015625 2.332657336e-38
-0.0625 -0.0625 0 2.332657336e-38
-0.0625 -0.0625 0.015625 2.332657336e-38
-0.0625 -0.0625 0.03125 2.332657336e-38
-0.0625 -0.0625 0.046875 2.332657336e-38
-0.0625 -0.0625 0.0625 2.332657336e-38
-0.0625 -0.0625 0.078125 2.332657336e-38
-0.0625 -0.0625 0.09375 2.332657336e-38
-0.0625 -0.0625 0.109375 2.332657336e-38
-0.0625 -0.0625 0.125 2.332657336e-38
-0.0625 -0.0625 0.140625 2.332657336e-38
-0.0625 -0.0625 0.15625 2.332657336e-38
-0.0625 -0.0625 0.171875 2.332657336e-38
-0.0625 -0.0625 0.1875 2.332657336e-38
-0.0625 -0.0625 0.203125 2.332657336e-38
-0.0625 -0.046875 0.046875 2.332657336e-38
-0.0625 -0.046875 0.078125 2.332657336e-38
-0.0625 -0.046875 0.109375 2.332657336e-38
-0.0625 -0.046875 0.140625 2.332657336e-38
-0.0625 -0.046875 0.15625 2.332657336e-38
-0.0625 -0.046875 0.171875 2.332657336e-38
-0.0625 -0.046875 0.1875 2.332657336e-38
-0.0625 -0.046875 0.203125 2.332657336e-38
-0.0625 -0.03125 -0.21875 2.34266611e-38
-0.0625 0 -0.21875 2.34266611e-38
-0.0625 0.015625 -0.21875 2.34266611e-38
-0.0625 0.03125 -0.21875 2.34266611e-38
-0.0625 0.046875 -0.21875 2.34266611e-38
-0.0625 0.0625 -0.21875 2.34266611e-38
-0.0625 0.078125 -0.21875 2.34266611e-38
-0.046875 -0.25 -0.015625 2.341806413e-38
-0.046875 -0.25 0 2.341806413e-38
-0.046875 -0.25 0.015625 2.341806413e-38
-0.046875 -0.234375 -0.03125 2.341806413e-38
-0.046875 -0.234375 -0.015625 2.341806413e-38
-0.046875 -0.234375 0 2.341806413e-38
-0.046875 -0.234375 0.015625 2.341806413e-38
-0.046875 -0.234375 0.03125 2.341806413e-38
-0.046875 -0.234375 0.046875 2.341806413e-38
-0.046875 -0.234375 0.078125 2.341806413e-38
-0.046875 -0.234375 0.109375 2.341806413e-38
-0.046875 -0.234375 0.140625 2.341806413e-38
-0.046875 -0.21875 -0.03125 2.341806413e-38
-0.046875 -0.21875 -0.015625 2.341806413e-38
-0.046875 -0.21875 0 2.341806413e-38
-0.046875 -0.21875 0.015625 2.341806413e-38
-0.046875 -0.21875 0.03125 2.341806413e-38
-0.046875 -0.21875 0.046875 2.341806413e-38
-0.046875 -0.21875 0.0625 2.341806413e-38
-0.046875 -0.21875 0.078125 2.341806413e-38
-0.046875 -0.21875 0.09375 2.341806413e-38
-0.046875 -0.21875 0.109375 2.341806413e-38
-0.046875 -0.21875 0.125 2.341806413e-38
-0.046875 -0.21875 0.140625 2.341806413e-38
-0.046875 -0.203125 -0.046875 2.341806413e-38
-0.046875 -0.203125 -0.03125 2.341806413e-38
-0.046875 -0.203125 -0.015625 2.341806413e-38
-0.046875 -0.203125 0 2.341806413e-38
-0.046875 -0.203125 0.015625 2.341806413e-38
-0.046875 -0.203125 0.03125 2.341806413e-38
-0.046875 -0.203125 0.046875 2.341806413e-38
-0.046875 -0.203125 0.0625 2.341806413e-38
-0.046875 -0.203125 0.078125 2.341806413e-38
-0.046875 -0.203125 0.09375 2.341806413e-38
-0.046875 -0.203125 0.109375 2.341806413e-38
-0.046875 -0.203125 0.125 2.341806413e-38
-0.046875 -0.203125 0.140625 2.341806413e-38
-0.046875 -0.203125 0.15625 2.341806413e-38
-0.046875 -0.203125 0.171875 2.341806413e-38
-0.046875 -0.1875 -0.03125 2.341806413e-38
-0.046875 -0.1875 -0.015625 2.341806413e-38
-0.046875 -0.1875 0 2.341806413e-38
-0.046875 -0.1875 0.015625 2.341806413e-38
-0.046875 -0.1875 0.03125 2.341806413e-38
-0.046875 -0.1875 0.046875 2.341806413e-38
-0.046875 -0.1875 0.0625 2.341806413e-38
-0.046875 -0.1875 0.078125 2.341806413e-38
-0.046875 -0.1875 0.09375 2.341806413e-38
-0.046875 -0.1875 0.109375 2.341806413e-38
-0.046875 -0.1875 0.125 2.341806413e-38
-0.046875 -0.1875 0.140625 2.341806413e-38
-0.046875 -0.1875 0.15625 2.341806413e-38
-0.046875 -0.1875 0.171875 2.341806413e-38
-0.046875 -0.171875 -0.03125 2.341806413e-38
-0.046875 -0.171875 -0.015625 2.341806413e-38
-0.046875 -0.171875 0 2.341806413e-38
-0.046875 -0.171875 0.015625 2.341806413e-38
-0.046875 -0.171875 0.03125 2.341806413e-38
-0.046875 -0.171875 0.046875 2.341806413e-38
-0.046875 -0.171875 0.0625 2.341806413e-38
-0.046875 -0.171875 0.078125 2.341806413e-38
-0.046875 -0.171875 0.09375 2.341806413e-38
-0.046875 -0.171875 0.109375 2.341806413e-38
-0.046875 -0.171875 0.125 2.341806413e-38
-0.046875 -0.171875 0.140625 2.341806413e-38
-0.046875 -0.171875 0.15625 2.341806413e-38
-0.046875 -0.171875 0.171875 2.341806413e-38
-0.046875 -0.15625 0.015625 2.341806413e-38
-0.046875 -0.15625 0.03125 2.341806413e-38
-0.046875 -0.15625 0.046875 2.341806413e-38
-0.046875 -0.15625 0.0625 2.341806413e-38
-0.046875 -0.15625 0.078125 2.341806413e-38
-0.046875 -0.15625 0.109375 2.341806413e-38
-0.046875 -0.15625 0.140625 2.341806413e-38
-0.046875 -0.078125 -0.203125 2.34266611e-38
-0.046875 -0.0625 -0.21875 2.332657336e-38
-0.046875 -0.0625 -0.203125 2.332657336e-38
-0.046875 -0.0625 -0.1875 2.332657336e-38
-0.046875 -0.0625 -0.171875 2.332657336e-38
-0.046875 -0.0625 -0.15625 2.332657336e-38
-0.046875 -0.0625 -0.140625 2.332657336e-38
-0.046875 -0.0625 -0.125 2.332657336e-38
-0.046875 -0.0625 -0.109375 2.332657336e-38
-0.046875 -0.0625 -0.09375 2.332657336e-38
-0.046875 -0.0625 -0.078125 2.332657336e-38
-0.046875 -0.0625 -0.0625 2.332657336e-38
-0.046875 -0.0625 -0.046875 2.332657336e-38
-0.046875 -0.0625 -0.03125 2.332657336e-38
-0.046875 -0.0625 -0.015625 2.332657336e-38
-0.046875 -0.0625 0 2.332657336e-38
-0.046875 -0.0625 0.015625 2.332657336e-38
-0.046875 -0.0625 0.03125 2.332657336e-38
-0.046875 -0.0625 0.046875 2.332657336e-38
-0.046875 -0.0625 0.078125 2.332657336e-38
-0.046875 -0.0625 0.09375 2.332657336e-38
-0.046875 -0.0625 0.125 2.332657336e-38
-0.046875 -0.0625 0.140625 2.332657336e-38
-0.046875 -0.0625 0.15625 2.332657336e-38
-0.046875 -0.046875 -0.21875 2.34266611e-38
-0.046875 -0.046875 -0.203125 2.332657336e-38
-0.046875 -0.046875 -0.1875 2.332657336e-38
-0.046875 -0.046875 -0.171875 2.332657336e-38
-0.046875 -0.046875 -0.078125 2.332657336e-38
-0.046875 -0.046875 -0.046875 2.332657336e-38
-0.046875 -0.046875 -0.03125 2.332657336e-38
-0.046875 -0.046875 -0.015625 2.332657336e-38
-0.046875 -0.046875 0 2.332657336e-38
-0.046875 -0.046875 0.015625 2.332657336e-38
-0.046875 -0.046875 0.03125 2.332657336e-38
-0.046875 -0.046875 0.046875 2.332657336e-38
-0.046875 -0.046875 0.0625 2.332657336e-38
-0.046875 -0.046875 0.078125 2.332657336e-38
-0.046875 -0.046875 0.09375 2.332657336e-38
-0.046875 -0.046875 0.109375 2.332657336e-38
-0.046875 -0.046875 0.125 2.332657336e-38
-0.046875 -0.046875 0.140625 2.332657336e-38
-0.046875 -0.046875 0.15625 2.332657336e-38
-0.046875 -0.046875 0.171875 2.332657336e-38
-0.046875 -0.046875 0.1875 2.332657336e-38
-0.046875 -0.03125 -0.21875 2.34266611e-38
-0.046875 -0.03125 -0.203125 2.34266611e-38
-0.046875 -0.03125 0.140625 2.332657336e-38
-0.046875 -0.03125 0.171875 2.332657336e-38
-0.046875 0.015625 -0.21875 2.34266611e-38
-0.046875 0.03125 -0.21875 2.34266611e-38
-0.046875 0.046875 -0.21875 2.34266611e-38
-0.03125 -0.25 0 2.341806413e-38
-0.03125 -0.25 0.015625 2.341806413e-38
-0.03125 -0.25 0.078125 2.341806413e-38
-0.03125 -0.25 0.109375 2.341806413e-38
-0.03125 -0.25 0.140625 2.341806413e-38
-0.03125 -0.234375 -0.03125 2.341806413e-38
-0.03125 -0.234375 -0.015625 2.341806413e-38
-0.03125 -0.234375 0 2.341806413e-38
-0.03125 -0.234375 0.015625 2.341806413e-38
-0.03125 -0.234375 0.03125 2.341806413e-38
-0.03125 -0.234375 0.046875 2.341806413e-38
-0.03125 -0.234375 0.0625 2.341806413e-38
-0.03125 -0.234375 0.078125 2.341806413e-38
-0.03125 -0.234375 0.09375 2.341806413e-38
-0.03125 -0.234375 0.109375 2.341806413e-38
-0.03125 -0.234375 0.125 2.341806413e-38
-0.03125 -0.234375 0.140625 2.341806413e-38
-0.03125 -0.234375 0.15625 2.341806413e-38
-0.03125 -0.21875 -0.046875 2.341806413e-38
-0.03125 -0.21875 -0.03125 2.341806413e-38
-0.03125 -0.21875 -0.015625 2.341806413e-38
-0.03125 -0.21875 0 2.341806413e-38
-0.03125 -0.21875 0.015625 2.341806413e-38
-0.03125 -0.21875 0.03125 2.341806413e-38
-0.03125 -0.21875 0.046875 2.341806413e-38
-0.03125 -0.21875 0.0625 2.341806413e-38
-0.03125 -0.21875 0.078125 2.341806413e-38
-0.03125 -0.21875 0.09375 2.341806413e-38
-0.03125 -0.21875 0.109375 2.341806413e-38
-0.03125 -0.21875 0.125 2.341806413e-38
-0.03125 -0.21875 0.140625 2.341806413e-38
-0.03125 -0.21875 0.15625 2.341806413e-38
-0.03125 -0.21875 0.171875 2.341806413e-38
-0.03125 -0.203125 -0.046875 2.341806413e-38
-0.03125 -0.203125 -0.03125 2.341806413e-38
-0.03125 -0.203125 -0.015625 2.341806413e-38
-0.03125 -0.203125 0 2.341806413e-38
-0.03125 -0.203125 0.015625 2.341806413e-38
-0.03125 -0.203125 0.03125 2.341806413e-38
-0.03125 -0.203125 0.046875 2.341806413e-38
-0.03125 -0.203125 0.0625 2.341806413e-38
-0.03125 -0.203125 0.078125 2.341806413e-38
-0.03125 -0.203125 0.09375 2.341806413e-38
-0.03125 -0.203125 0.109375 2.341806413e-38
-0.03125 -0.203125 0.125 2.341806413e-38
-0.03125 -0.203125 0.140625 2.341806413e-38
-0.03125 -0.203125 0.15625 2.341806413e-38
-0.03125 -0.203125 0.171875 2.341806413e-38
-0.03125 -0.203125 0.1875 2.341806413e-38
-0.03125 -0.1875 -0.03125 2.341806413e-38
-0.03125 -0.1875 -0.015625 2.341806413e-38
-0.03125 -0.1875 0 2.341806413e-38
-0.03125 -0.1875 0.015625 2.341806413e-38
-0.03125 -0.1875 0.03125 2.341806413e-38
-0.03125 -0.1875 0.046875 2.341806413e-38
-0.03125 -0.1875 0.0625 2.341806413e-38
-0.03125 -0.1875 0.078125 2.341806413e-38
-0.03125 -0.1875 0.09375 2.341806413e-38
-0.03125 -0.1875 0.109375 2.341806413e-38
-0.03125 -0.1875 0.125 2.341806413e-38
-0.03125 -0.1875 0.140625 2.341806413e-38
-0.03125 -0.1875 0.15625 2.341806413e-38
-0.03125 -0.1875 0.171875 2.341806413e-38
-0.03125 -0.1875 0.1875 2.341806413e-38
-0.03125 -0.171875 -0.015625 2.341806413e-38
-0.03125 -0.171875 0 2.341806413e-38
-0.03125 -0.171875 0.015625 2.341806413e-38
-0.03125 -0.171875 0.03125 2.341806413e-38
-0.03125 -0.171875 0.046875 2.341806413e-38
-0.03125 -0.171875 0.0625 2.341806413e-38
-0.03125 -0.171875 0.078125 2.341806413e-38
-0.03125 -0.171875 0.09375 2.341806413e-38
-0.03125 -0.171875 0.109375 2.341806413e-38
-0.03125 -0.171875 0.125 2.341806413e-38
-0.03125 -0.171875 0.140625 2.341806413e-38
-0.03125 -0.171875 0.15625 2.341806413e-38
-0.03125 -0.171875 0.171875 2.341806413e-38
-0.03125 -0.171875 0.1875 2.341806413e-38
-0.03125 -0.15625 0.015625 2.341806413e-38
-0.03125 -0.15625 0.03125 2.341806413e-38
-0.03125 -0.15625 0.046875 2.341806413e-38
-0.03125 -0.15625 0.0625 2.341806413e-38
-0.03125 -0.15625 0.078125 2.341806413e-38
-0.03125 -0.15625 0.09375 2.341806413e-38
-0.03125 -0.15625 0.109375 2.341806413e-38
-0.03125 -0.15625 0.125 2.341806413e-38
-0.03125 -0.15625 0.140625 2.341806413e-38
-0.03125 -0.15625 0.15625 2.341806413e-38
-0.03125 -0.15625 0.171875 2.341806413e-38
-0.03125 -0.0625 -0.203125 2.332657336e-38
-0.03125 -0.0625 -0.1875 2.332657336e-38
-0.03125 -0.0625 -0.171875 2.332657336e-38
-0.03125 -0.0625 -0.15625 2.332657336e-38
-0.03125 -0.0625 -0.140625 2.332657336e-38
-0.03125 -0.0625 -0.125 2.332657336e-38
-0.03125 -0.0625 -0.109375 2.332657336e-38
-0.03125 -0.0625 -0.09375 2.332657336e-38
-0.03125 -0.0625 -0.078125 2.332657336e-38
-0.03125 -0.0625 -0.0625 2.332657336e-38
-0.03125 -0.046875 -0.21875 2.34266611e-38
-0.03125 -0.046875 -0.203125 2.332657336e-38
-0.03125 -0.046875 -0.1875 2.332657336e-38
-0.03125 -0.046875 -0.171875 2.332657336e-38
-0.03125 -0.046875 -0.15625 2.332657336e-38
-0.03125 -0.046875 -0.140625 2.332657336e-38
-0.03125 -0.046875 -0.125 2.332657336e-38
-0.03125 -0.046875 -0.109375 2.332657336e-38
-0.03125 -0.046875 -0.09375 2.332657336e-38
-0.03125 -0.046875 -0.078125 2.332657336e-38
-0.03125 -0.046875 -0.0625 2.332657336e-38
-0.03125 -0.046875 -0.046875 2.332657336e-38
-0.03125 -0.046875 -0.03125 2.332657336e-38
-0.03125 -0.046875 -0.015625 2.332657336e-38
-0.03125 -0.046875 0 2.332657336e-38
-0.03125 -0.046875 0.015625 2.332657336e-38
-0.03125 -0.046875 0.03125 2.332657336e-38
-0.03125 -0.046875 0.046875 2.332657336e-38
-0.03125 -0.046875 0.0625 2.332657336e-38
-0.03125 -0.046875 0.078125 2.332657336e-38
-0.03125 -0.046875 0.09375 2.332657336e-38
-0.03125 -0.046875 0.109375 2.332657336e-38
-0.03125 -0.046875 0.125 2.332657336e-38
-0.03125 -0.046875 0.140625 2.332657336e-38
-0.03125 -0.046875 0.15625 2.332657336e-38
-0.03125 -0.046875 0.171875 2.332657336e-38
-0.03125 -0.046875 0.1875 2.332657336e-38
-0.03125 -0.03125 0.015625 2.332657336e-38
-0.03125 -0.03125 0.046875 2.332657336e-38
-0.03125 -0.03125 0.0625 2.332657336e-38
-0.03125 -0.03125 0.078125 2.332657336e-38
-0.03125 -0.03125 0.09375 2.332657336e-38
-0.03125 -0.03125 0.109375 2.332657336e-38
-0.03125 -0.03125 0.125 2.332657336e-38
-0.03125 -0.03125 0.140625 2.332657336e-38
-0.03125 -0.03125 0.15625 2.332657336e-38
-0.03125 -0.03125 0.171875 2.332657336e-38
-0.03125 -0.03125 0.1875 2.332657336e-38
-0.03125 0.03125 -0.21875 2.34266611e-38
-0.015625 -0.25 0.109375 2.341806413e-38
-0.015625 -0.234375 -0.03125 2.341806413e-38
-0.015625 -0.234375 -0.015625 2.341806413e-38
-0.015625 -0.234375 0 2.341806413e-38
-0.015625 -0.234375 0.015625 2.341806413e-38
-0.015625 -0.234375 0.03125 2.341806413e-38
-0.015625 -0.234375 0.046875 2.341806413e-38
-0.015625 -0.234375 0.0625 2.341806413e-38
-0.015625 -0.234375 0.078125 2.341806413e-38
-0.015625 -0.234375 0.09375 2.341806413e-38
-0.015625 -0.234375 0.109375 2.341806413e-38
-0.015625 -0.234375 0.125 2.341806413e-38
-0.015625 -0.234375 0.140625 2.341806413e-38
-0.015625 -0.234375 0.15625 2.341806413e-38
-0.015625 -0.234375 0.171875 2.341806413e-38
-0.015625 -0.21875 -0.03125 2.341806413e-38
-0.015625 -0.21875 -0.015625 2.341806413e-38
-0.015625 -0.21875 0 2.341806413e-38
-0.015625 -0.21875 0.015625 2.341806413e-38
-0.015625 -0.21875 0.03125 2.341806413e-38
-0.015625 -0.21875 0.046875 2.341806413e-38
-0.015625 -0.21875 0.0625 2.341806413e-38
-0.015625 -0.21875 0.078125 2.341806413e-38
-0.015625 -0.21875 0.09375 2.341806413e-38
-0.015625 -0.21875 0.109375 2.341806413e-38
-0.015625 -0.21875 0.125 2.341806413e-38
-0.015625 -0.21875 0.140625 2.341806413e-38
-0.015625 -0.21875 0.15625 2.341806413e-38
-0.015625 -0.21875 0.171875 2.341806413e-38
-0.015625 -0.203125 -0.046875 2.341806413e-38
-0.015625 -0.203125 -0.03125 2.341806413e-38
-0.015625 -0.203125 -0.015625 2.341806413e-38
-0.015625 -0.203125 0 2.341806413e-38
-0.015625 -0.203125 0.015625 2.341806413e-38
-0.015625 -0.203125 0.03125 2.341806413e-38
-0.015625 -0.203125 0.046875 2.341806413e-38
-0.015625 -0.203125 0.0625 2.341806413e-38
-0.015625 -0.203125 0.078125 2.341806413e-38
-0.015625 -0.203125 0.09375 2.341806413e-38
-0.015625 -0.203125 0.109375 2.341806413e-38
-0.015625 -0.203125 0.125 2.341806413e-38
-0.015625 -0.203125 0.140625 2.341806413e-38
-0.015625 -0.203125 0.15625 2.341806413e-38
-0.015625 -0.203125 0.171875 2.341806413e-38
-0.015625 -0.203125 0.1875 2.341806413e-38
-0.015625 -0.1875 -0.03125 2.341806413e-38
-0.015625 -0.1875 -0.015625 2.341806413e-38
-0.015625 -0.1875 0 2.341806413e-38
-0.015625 -0.1875 0.015625 2.341806413e-38
-0.015625 -0.1875 0.03125 2.341806413e-38
-0.015625 -0.1875 0.046875 2.341806413e-38
-0.015625 -0.1875 0.0625 2.341806413e-38
-0.015625 -0.1875 0.078125 2.341806413e-38
-0.015625 -0.1875 0.09375 2.341806413e-38
-0.015625 -0.1875 0.109375 2.341806413e-38
-0.015625 -0.1875 0.125 2.341806413e-38
-0.015625 -0.1875 0.140625 2.341806413e-38
-0.015625 -0.1875 0.15625 2.341806413e-38
-0.015625 -0.1875 0.171875 2.341806413e-38
-0.015625 -0.1875 0.1875 2.341806413e-38
-0.015625 -0.171875 0 2.341806413e-38
-0.015625 -0.171875 0.015625 2.341806413e-38
-0.015625 -0.171875 0.03125 2.341806413e-38
-0.015625 -0.171875 0.046875 2.341806413e-38
-0.015625 -0.171875 0.0625 2.341806413e-38
-0.015625 -0.171875 0.078125 2.341806413e-38
-0.015625 -0.171875 0.09375 2.341806413e-38
-0.015625 -0.171875 0.109375 2.341806413e-38
-0.015625 -0.171875 0.125 2.341806413e-38
-0.015625 -0.171875 0.140625 2.341806413e-38
-0.015625 -0.171875 0.15625 2.341806413e-38
-0.015625 -0.171875 0.171875 2.341806413e-38
-0.015625 -0.171875 0.1875 2.341806413e-38
-0.015625 -0.15625 0.109375 2.341806413e-38
-0.015625 -0.15625 0.125 2.341806413e-38
-0.015625 -0.15625 0.140625 2.341806413e-38
-0.015625 -0.15625 0.15625 2.341806413e-38
-0.015625 -0.15625 0.171875 2.341806413e-38
-0.015625 -0.046875 -0.21875 2.34266611e-38
-0.015625 -0.046875 -0.203125 2.332657336e-38
-0.015625 -0.046875 -0.1875 2.332657336e-38
-0.015625 -0.046875 -0.171875 2.332657336e-38
-0.015625 -0.046875 -0.15625 2.332657336e-38
-0.015625 -0.046875 -0.140625 2.332657336e-38
-0.015625 -0.046875 -0.125 2.332657336e-38
-0.015625 -0.046875 -0.109375 2.332657336e-38
-0.015625 -0.046875 -0.09375 2.332657336e-38
-0.015625 -0.046875 -0.078125 2.332657336e-38
-0.015625 -0.046875 -0.0625 2.332657336e-38
-0.015625 -0.046875 -0.046875 2.332657336e-38
-0.015625 -0.046875 -0.03125 2.332657336e-38
-0.015625 -0.046875 -0.015625 2.332657336e-38
-0.015625 -0.046875 0 2.332657336e-38
-0.015625 -0.046875 0.015625 2.332657336e-38
-0.015625 -0.03125 -0.21875 2.34266611e-38
-0.015625 -0.03125 -0.203125 2.332657336e-38
-0.015625 -0.03125 -0.1875 2.332657336e-38
-0.015625 -0.03125 -0.078125 2.332657336e-38
-0.015625 -0.03125 -0.0625 2.332657336e-38
-0.015625 -0.03125 -0.046875 2.332657336e-38
-0.015625 -0.03125 -0.03125 2.332657336e-38
-0.015625 -0.03125 -0.015625 2.332657336e-38
-0.015625 -0.03125 0 2.332657336e-38
-0.015625 -0.03125 0.015625 2.332657336e-38
-0.015625 -0.03125 0.03125 2.332657336e-38
-0.015625 -0.03125 0.046875 2.332657336e-38
-0.015625 -0.03125 0.0625 2.332657336e-38
-0.015625 -0.03125 0.078125 2.332657336e-38
-0.015625 -0.03125 0.09375 2.332657336e-38
-0.015625 -0.03125 0.109375 2.332657336e-38
-0.015625 -0.03125 0.125 2.332657336e-38
-0.015625 -0.03125 0.140625 2.332657336e-38
-0.015625 -0.03125 0.15625 2.332657336e-38
-0.015625 -0.03125 0.171875 2.332657336e-38
-0.015625 -0.03125 0.1875 2.332657336e-38
0 -0.234375 0.109375 2.341806413e-38
0 -0.234375 0.125 2.341806413e-38
0 -0.234375 0.140625 2.341806413e-38
0 -0.21875 0.078125 2.341806413e-38
0 -0.21875 0.09375 2.341806413e-38
0 -0.21875 0.109375 2.341806413e-38
0 -0.21875 0.125 2.341806413e-38
0 -0.21875 0.140625 2.341806413e-38
0 -0.21875 0.15625 2.341806413e-38
0 -0.203125 -0.015625 2.341806413e-38
0 -0.203125 0 2.341806413e-38
0 -0.203125 0.015625 2.341806413e-38
0 -0.203125 0.03125 2.341806413e-38
0 -0.203125 0.046875 2.341806413e-38
0 -0.203125 0.0625 2.341806413e-38
0 -0.203125 0.078125 2.341806413e-38
0 -0.203125 0.09375 2.341806413e-38
0 -0.203125 0.109375 2.341806413e-38
0 -0.203125 0.125 2.341806413e-38
0 -0.203125 0.140625 2.341806413e-38
0 -0.203125 0.15625 2.341806413e-38
0 -0.203125 0.171875 2.341806413e-38
0 -0.1875 0.015625 2.341806413e-38
0 -0.1875 0.03125 2.341806413e-38
0 -0.1875 0.046875 2.341806413e-38
0 -0.1875 0.0625 2.341806413e-38
0 -0.1875 0.078125 2.341806413e-38
0 -0.1875 0.09375 2.341806413e-38
0 -0.1875 0.109375 2.341806413e-38
0 -0.1875 0.125 2.341806413e-38
0 -0.1875 0.140625 2.341806413e-38
0 -0.1875 0.15625 2.341806413e-38
0 -0.1875 0.171875 2.341806413e-38
0 -0.171875 0.078125 2.341806413e-38
0 -0.171875 0.09375 2.341806413e-38
0 -0.171875 0.109375 2.341806413e-38
0 -0.171875 0.125 2.341806413e-38
0 -0.171875 0.140625 2.341806413e-38
0 -0.171875 0.15625 2.341806413e-38
0 -0.171875 0.171875 2.341806413e-38
0 -0.046875 -0.203125 2.34266611e-38
0 -0.046875 -0.171875 2.332657336e-38
0 -0.046875 -0.15625 2.332657336e-38
0 -0.046875 -0.140625 2.332657336e-38
0 -0.046875 -0.125 2.332657336e-38
0 -0.046875 -0.109375 2.332657336e-38
0 -0.046875 -0.09375 2.332657336e-38
0 -0.046875 -0.078125 2.332657336e-38
0 -0.03125 -0.21875 2.34266611e-38
0 -0.03125 -0.203125 2.332657336e-38
0 -0.03125 -0.1875 2.332657336e-38
0 -0.03125 -0.171875 2.332657336e-38
0 -0.03125 -0.15625 2.332657336e-38
0 -0.03125 -0.140625 2.332657336e-38
0 -0.03125 -0.125 2.332657336e-38
0 -0.03125 -0.109375 2.332657336e-38
0 -0.03125 -0.09375 2.332657336e-38
0 -0.03125 -0.078125 2.332657336e-38
0 -0.03125 -0.0625 2.332657336e-38
0 -0.03125 -0.046875 2.332657336e-38
0 -0.03125 -0.03125 2.332657336e-38
0 -0.03125 -0.015625 2.332657336e-38
0 -0.03125 0 2.332657336e-38
0 -0.03125 0.015625 2.332657336e-38
0 -0.03125 0.03125 2.332657336e-38
0 -0.03125 0.046875 2.332657336e-38
0 -0.03125 0.0625 2.332657336e-38
0 -0.03125 0.078125 2.332657336e-38
0 -0.03125 0.09375 2.332657336e-38
0 -0.03125 0.109375 2.332657336e-38
0 -0.03125 0.125 2.332657336e-38
0 -0.03125 0.140625 2.332657336e-38
0 -0.03125 0.15625 2.332657336e-38
0 -0.03125 0.171875 2.332657336e-38
0 -0.03125 0.1875 2.332657336e-38
0 -0.015625 -0.015625 2.332657336e-38
0 -0.015625 0 2.332657336e-38
0 -0.015625 0.015625 2.332657336e-38
0 -0.015625 0.03125 2.332657336e-38
0 -0.015625 0.046875 2.332657336e-38
0 -0.015625 0.0625 2.332657336e-38
0 -0.015625 0.078125 2.332657336e-38
0 -0.015625 0.09375 2.332657336e-38
0 -0.015625 0.109375 2.332657336e-38
0 -0.015625 0.125 2.332657336e-38
0 -0.015625 0.140625 2.332657336e-38
0 -0.015625 0.15625 2.332657336e-38
0 -0.015625 0.171875 2.332657336e-38
0 -0.015625 0.1875 2.332657336e-38
0.015625 -0.046875 -0.203125 2.34266611e-38
0.015625 -0.03125 -0.203125 2.332657336e-38
0.015625 -0.03125 -0.1875 2.332657336e-38
0.015625 -0.03125 -0.171875 2.332657336e-38
0.015625 -0.03125 -0.15625 2.332657336e-38
0.015625 -0.03125 -0.140625 2.332657336e-38
0.015625 -0.03125 -0.125 2.332657336e-38
0.015625 -0.03125 -0.109375 2.332657336e-38
0.015625 -0.03125 -0.09375 2.332657336e-38
0.015625 -0.03125 -0.078125 2.332657336e-38
0.015625 -0.03125 -0.0625 2.332657336e-38
0.015625 -0.03125 -0.046875 2.332657336e-38
0.015625 -0.03125 -0.03125 2.332657336e-38
0.015625 -0.03125 -0.015625 2.332657336e-38
0.015625 -0.015625 -0.203125 2.332657336e-38
0.015625 -0.015625 -0.1875 2.332657336e-38
0.015625 -0.015625 -0.078125 2.332657336e-38
0.015625 -0.015625 -0.0625 2.332657336e-38
0.015625 -0.015625 -0.046875 2.332657336e-38
0.015625 -0.015625 -0.03125 2.332657336e-38
0.015625 -0.015625 -0.015625 2.332657336e-38
0.015625 -0.015625 0 2.332657336e-38
0.015625 -0.015625 0.015625 2.332657336e-38
0.015625 -0.015625 0.03125 2.332657336e-38
0.015625 -0.015625 0.046875 2.332657336e-38
0.015625 -0.015625 0.0625 2.332657336e-38
0.015625 -0.015625 0.078125 2.332657336e-38
0.015625 -0.015625 0.09375 2.332657336e-38
0.015625 -0.015625 0.109375 2.332657336e-38
0.015625 -0.015625 0.125 2.332657336e-38
0.015625 -0.015625 0.140625 2.332657336e-38
0.015625 -0.015625 0.15625 2.332657336e-38
0.015625 -0.015625 0.171875 2.332657336e-38
0.015625 -0.015625 0.1875 2.332657336e-38
0.03125 -0.03125 -0.203125 2.332657336e-38
0.03125 -0.03125 -0.171875 2.332657336e-38
0.03125 -0.03125 -0.15625 2.332657336e-38
0.03125 -0.03125 -0.140625 2.332657336e-38
0.03125 -0.03125 -0.125 2.332657336e-38
0.03125 -0.03125 -0.109375 2.332657336e-38
0.03125 -0.03125 -0.09375 2.332657336e-38
0.03125 -0.015625 -0.203125 2.332657336e-38
0.03125 -0.015625 -0.1875 2.332657336e-38
0.03125 -0.015625 -0.171875 2.332657336e-38
0.03125 -0.015625 -0.15625 2.332657336e-38
0.03125 -0.015625 -0.140625 2.332657336e-38
0.03125 -0.015625 -0.125 2.332657336e-38
0.03125 -0.015625 -0.109375 2.332657336e-38
0.03125 -0.015625 -0.09375 2.332657336e-38
0.03125 -0.015625 -0.078125 2.332657336e-38
0.03125 -0.015625 -0.0625 2.332657336e-38
0.03125 -0.015625 -0.046875 2.332657336e-38
0.03125 -0.015625 -0.03125 2.332657336e-38
0.03125 -0.015625 -0.015625 2.332657336e-38
0.03125 -0.015625 0 2.332657336e-38
0.03125 -0.015625 0.015625 2.332657336e-38
0.03125 -0.015625 0.03125 2.332657336e-38
0.03125 -0.015625 0.046875 2.332657336e-38
0.03125 -0.015625 0.0625 2.332657336e-38
0.03125 -0.015625 0.078125 2.332657336e-38
0.03125 -0.015625 0.09375 2.332657336e-38
0.03125 -0.015625 0.109375 2.332657336e-38
0.03125 -0.015625 0.125 2.332657336e-38
0.03125 -0.015625 0.140625 2.332657336e-38
0.03125 -0.015625 0.15625 2.332657336e-38
0.03125 0 -0.078125 1.560844702e-39
0.03125 0 -0.0625 1.560844702e-39
0.03125 0 -0.046875 2.332657336e-38
0.03125 0 -0.03125 1.560844702e-39
0.03125 0 -0.015625 2.332657336e-38
0.03125 0 0 2.332657336e-38
0.03125 0 0.015625 2.332657336e-38
0.03125 0 0.03125 2.332657336e-38
0.03125 0 0.046875 2.332657336e-38
0.03125 0 0.0625 2.332657336e-38
0.03125 0 0.078125 2.332657336e-38
0.03125 0 0.09375 2.332657336e-38
0.03125 0 0.109375 2.332657336e-38
0.046875 -0.03125 -0.203125 2.34266611e-38
0.046875 -0.015625 -0.21875 2.34266611e-38
0.046875 -0.015625 -0.203125 2.332657336e-38
0.046875 -0.015625 -0.1875 2.332657336e-38
0.046875 -0.015625 -0.171875 2.332657336e-38
0.046875 -0.015625 -0.15625 2.332657336e-38
0.046875 -0.015625 -0.140625 2.332657336e-38
0.046875 -0.015625 -0.125 2.332657336e-38
0.046875 -0.015625 -0.109375 2.332657336e-38
0.046875 -0.015625 -0.09375 2.332657336e-38
0.046875 -0.015625 -0.078125 2.332657336e-38
0.046875 -0.015625 -0.0625 2.332657336e-38
0.046875 -0.015625 -0.046875 2.332657336e-38
0.046875 -0.015625 -0.03125 2.332657336e-38
0.046875 0 -0.21875 2.34266611e-38
0.046875 0 -0.203125 2.332657336e-38
0.046875 0 -0.078125 1.560844702e-39
0.046875 0 -0.0625 2.332657336e-38
0.046875 0 -0.046875 2.332657336e-38
0.046875 0 -0.03125 2.332657336e-38
0.046875 0 -0.015625 2.332657336e-38
0.046875 0 0 2.332657336e-38
0.046875 0 0.015625 2.332657336e-38
0.046875 0 0.03125 2.332657336e-38
0.046875 0 0.046875 2.332657336e-38
0.046875 0.015625 0.03125 2.341806413e-38
0.046875 0.015625 0.046875 2.341806413e-38
0.046875 0.015625 0.0625 2.341806413e-38
0.046875 0.015625 0.078125 2.341806413e-38
0.046875 0.015625 0.09375 2.341806413e-38
0.046875 0.015625 0.109375 2.341806413e-38
0.046875 0.015625 0.125 2.341806413e-38
0.0625 -0.03125 -0.203125 2.34266611e-38
0.0625 -0.015625 -0.21875 2.34266611e-38
0.0625 -0.015625 -0.203125 2.332657336e-38
0.0625 -0.015625 -0.1875 2.341806413e-38
0.0625 -0.015625 -0.171875 2.332657336e-38
0.0625 -0.015625 -0.15625 2.332657336e-38
0.0625 -0.015625 -0.140625 2.332657336e-38
0.0625 -0.015625 -0.125 2.332657336e-38
0.0625 -0.015625 -0.109375 2.332657336e-38
0.0625 -0.015625 -0.09375 2.332657336e-38
0.0625 -0.015625 -0.078125 2.332657336e-38
0.0625 -0.015625 -0.0625 2.332657336e-38
0.0625 0 -0.21875 2.34266611e-38
0.0625 0 -0.203125 2.34266611e-38
0.0625 0 -0.046875 2.332657336e-38
0.078125 -0.03125 -0.21875 2.34266611e-38
0.078125 -0.015625 -0.21875 2.34266611e-38
0.078125 -0.015625 -0.203125 2.34266611e-38
0.078125 -0.015625 -0.1875 2.341806413e-38
0.078125 -0.015625 -0.171875 2.341806413e-38
0.078125 0 -0.21875 2.34266611e-38
0.078125 0 -0.203125 2.34266611e-38
0.078125 0 -0.171875 2.341806413e-38
0.078125 0.015625 -0.21875 2.34266611e-38
0.09375 -0.03125 -0.21875 2.34266611e-38
0.09375 -0.015625 -0.21875 2.34266611e-38
0.09375 -0.015625 -0.203125 2.34266611e-38
0.09375 0 -0.21875 2.34266611e-38
0.09375 0.015625 -0.21875 2.34266611e-38
0.109375 -0.015625 -0.21875 2.34266611e-38
0.109375 -0.015625 -0.203125 2.34266611e-38
0.109375 0 -0.21875 2.34266611e-38
0.109375 0.015625 -0.21875 2.34266611e-38
0.125 -0.03125 -0.21875 2.34266611e-38
0.125 -0.015625 -0.21875 2.34266611e-38
0.125 -0.015625 -0.203125 2.34266611e-38
0.125 0 -0.21875 2.34266611e-38
0.125 0 -0.203125 2.34266611e-38
0.125 0.015625 -0.21875 2.34266611e-38
0.140625 -0.03125 -0.21875 2.34266611e-38
0.140625 -0.015625 -0.21875 2.34266611e-38
0.140625 -0.015625 -0.203125 2.34266611e-38
0.140625 0 -0.21875 2.34266611e-38
0.140625 0 -0.203125 2.34266611e-38
0.140625 0.015625 -0.21875 2.34266611e-38
0.15625 -0.046875 -0.21875 2.34266611e-38
0.15625 -0.03125 -0.21875 2.34266611e-38
0.15625 -0.03125 -0.203125 2.34266611e-38
0.15625 -0.015625 -0.21875 2.34266611e-38
0.15625 -0.015625 -0.203125 2.34266611e-38
0.15625 0 -0.21875 2.34266611e-38
0.15625 0 -0.203125 2.34266611e-38
0.15625 0.015625 -0.21875 2.34266611e-38
0.15625 0.03125 -0.21875 2.34266611e-38
0.171875 -0.0625 -0.21875 2.34266611e-38
0.171875 -0.046875 -0.21875 2.34266611e-38
0.171875 -0.03125 -0.21875 2.34266611e-38
0.171875 -0.03125 -0.203125 2.34266611e-38
0.171875 -0.015625 -0.21875 2.34266611e-38
0.171875 -0.015625 -0.203125 2.34266611e-38
0.171875 0 -0.21875 2.34266611e-38
0.171875 0 -0.203125 2.34266611e-38
0.171875 0.015625 -0.21875 2.34266611e-38
0.1875 -0.0625 -0.21875 2.34266611e-38
0.1875 -0.046875 -0.21875 2.34266611e-38
0.1875 -0.03125 -0.21875 2.34266611e-38
0.1875 -0.03125 -0.203125 2.34266611e-38
