# .PCD v0.7 - Point Cloud Data file format
VERSION 0.7
FIELDS x y z rgb
SIZE 4 4 4 4
TYPE F F F F
COUNT 1 1 1 1
WIDTH 1173
HEIGHT 1
VIEWPOINT 0 0 0 1 0 0 0
POINTS 1173
DATA ascii
0.3125 0.1875 -0.109375 2.347508997e-38
0.3125 0.1875 -0.09375 2.347508997e-38
0.3125 0.1875 0.109375 2.341806413e-38
0.3125 0.1875 0.125 2.341806413e-38
0.3125 0.1875 0.140625 2.341806413e-38
0.3125 0.1875 0.15625 2.341806413e-38
0.3125 0.203125 -0.140625 2.347508997e-38
0.3125 0.203125 -0.125 2.347508997e-38
0.3125 0.203125 -0.109375 2.347508997e-38
0.3125 0.203125 -0.09375 2.347508997e-38
0.3125 0.203125 -0.078125 2.347508997e-38
0.3125 0.203125 -0.046875 2.341806413e-38
0.3125 0.203125 -0.015625 2.341806413e-38
0.3125 0.203125 0 2.341806413e-38
0.3125 0.203125 0.015625 2.341806413e-38
0.3125 0.203125 0.03125 2.341806413e-38
0.3125 0.203125 0.046875 2.341806413e-38
0.3125 0.203125 0.0625 2.341806413e-38
0.3125 0.203125 0.078125 2.341806413e-38
0.3125 0.203125 0.09375 2.341806413e-38
0.3125 0.203125 0.109375 2.341806413e-38
0.3125 0.203125 0.125 2.341806413e-38
0.3125 0.203125 0.140625 2.341806413e-38
0.3125 0.203125 0.15625 2.341806413e-38
0.3125 0.203125 0.171875 2.341806413e-38
0.3125 0.21875 -0.109375 2.347508997e-38
0.3125 0.21875 -0.09375 2.347508997e-38
0.3125 0.21875 -0.078125 2.341806413e-38
0.3125 0.21875 -0.0625 2.341806413e-38
0.3125 0.21875 -0.046875 2.341806413e-38
0.3125 0.21875 -0.03125 2.341806413e-38
0.3125 0.21875 -0.015625 2.341806413e-38
0.3125 0.21875 0 2.341806413e-38
0.3125 0.21875 0.015625 2.341806413e-38
0.3125 0.21875 0.03125 2.341806413e-38
0.3125 0.21875 0.046875 2.341806413e-38
0.3125 0.21875 0.0625 2.341806413e-38
0.3125 0.21875 0.078125 2.341806413e-38
0.3125 0.21875 0.09375 2.341806413e-38
0.3125 0.21875 0.109375 2.341806413e-38
0.3125 0.21875 0.125 2.341806413e-38
0.3125 0.21875 0.140625 2.341806413e-38
0.3125 0.21875 0.15625 2.341806413e-38
0.3125 0.234375 -0.078125 2.341806413e-38
0.3125 0.234375 -0.0625 2.341806413e-38
0.3125 0.234375 -0.046875 2.341806413e-38
0.3125 0.234375 -0.03125 2.341806413e-38
0.3125 0.234375 -0.015625 2.341806413e-38
0.3125 0.234375 0 2.341806413e-38
0.3125 0.234375 0.015625 2.341806413e-38
0.3125 0.234375 0.03125 2.341806413e-38
0.328125 -0.109375 -0.140625 2.347508997e-38
0.328125 -0.09375 -0.140625 2.347508997e-38
0.328125 -0.09375 -0.125 2.347508997e-38
0.328125 -0.078125 -0.140625 2.347508997e-38
0.328125 -0.078125 -0.125 2.347508997e-38
0.328125 -0.0625 -0.140625 2.34266611e-38
0.328125 -0.0625 -0.125 2.347508997e-38
0.328125 -0.0625 -0.109375 9.155243387e-41
0.328125 -0.0625 -0.09375 9.155243387e-41
0.328125 -0.046875 -0.109375 9.155243387e-41
0.328125 -0.046875 -0.09375 9.155243387e-41
0.328125 -0.03125 -0.09375 9.155243387e-41
0.328125 -0.03125 -0.078125 9.155243387e-41
0.328125 -0.015625 -0.078125 9.155243387e-41
0.328125 0 -0.078125 9.155243387e-41
0.328125 0.015625 -0.078125 9.155243387e-41
0.328125 0.03125 -0.078125 9.155243387e-41
0.328125 0.046875 -0.078125 9.155243387e-41
0.328125 0.0625 -0.078125 9.155243387e-41
0.328125 0.078125 -0.09375 9.155243387e-41
0.328125 0.078125 -0.078125 9.155243387e-41
0.328125 0.09375 -0.09375 9.155243387e-41
0.328125 0.09375 -0.078125 9.155243387e-41
0.328125 0.109375 -0.109375 9.155243387e-41
0.328125 0.109375 -0.09375 9.155243387e-41
0.328125 0.109375 -0.078125 9.155243387e-41
0.328125 0.125 -0.109375 9.155243387e-41
0.328125 0.125 -0.09375 9.155243387e-41
0.328125 0.140625 -0.140625 2.347508997e-38
0.328125 0.140625 -0.125 2.347508997e-38
0.328125 0.140625 -0.109375 9.155243387e-41
0.328125 0.140625 -0.09375 9.155243387e-41
0.328125 0.15625 -0.140625 2.347508997e-38
0.328125 0.15625 -0.125 2.347508997e-38
0.328125 0.171875 -0.140625 2.347508997e-38
0.328125 0.171875 -0.125 2.347508997e-38
0.328125 0.171875 -0.109375 2.347508997e-38
0.328125 0.171875 -0.09375 2.347508997e-38
0.328125 0.171875 0.109375 2.341806413e-38
0.328125 0.171875 0.125 2.341806413e-38
0.328125 0.171875 0.140625 2.341806413e-38
0.328125 0.171875 0.15625 2.341806413e-38
0.328125 0.171875 0.171875 2.341806413e-38
0.328125 0.1875 -0.140625 2.347508997e-38
0.328125 0.1875 -0.125 2.347508997e-38
0.328125 0.1875 -0.109375 2.347508997e-38
0.328125 0.1875 -0.09375 2.347508997e-38
0.328125 0.1875 -0.078125 2.347508997e-38
0.328125 0.1875 -0.0625 2.341806413e-38
0.328125 0.1875 -0.046875 2.341806413e-38
0.328125 0.1875 -0.03125 2.341806413e-38
0.328125 0.1875 -0.015625 2.341806413e-38
0.328125 0.1875 0 2.341806413e-38
0.328125 0.1875 0.015625 2.341806413e-38
0.328125 0.1875 0.03125 2.341806413e-38
0.328125 0.1875 0.046875 2.341806413e-38
0.328125 0.1875 0.0625 2.341806413e-38
0.328125 0.1875 0.078125 2.341806413e-38
0.328125 0.1875 0.09375 2.341806413e-38
0.328125 0.1875 0.109375 2.341806413e-38
0.328125 0.1875 0.125 2.341806413e-38
0.328125 0.1875 0.140625 2.341806413e-38
0.328125 0.1875 0.15625 2.341806413e-38
0.328125 0.1875 0.171875 2.341806413e-38
0.328125 0.1875 0.1875 2.341806413e-38
0.328125 0.203125 -0.125 2.347508997e-38
0.328125 0.203125 -0.109375 2.347508997e-38
0.328125 0.203125 -0.09375 2.347508997e-38
0.328125 0.203125 -0.078125 2.347508997e-38
0.328125 0.203125 -0.0625 2.341806413e-38
0.328125 0.203125 -0.046875 2.341806413e-38
0.328125 0.203125 -0.03125 2.341806413e-38
0.328125 0.203125 -0.015625 2.341806413e-38
0.328125 0.203125 0 2.341806413e-38
0.328125 0.203125 0.015625 2.341806413e-38
0.328125 0.203125 0.03125 2.341806413e-38
0.328125 0.203125 0.046875 2.341806413e-38
0.328125 0.203125 0.0625 2.341806413e-38
0.328125 0.203125 0.078125 2.341806413e-38
0.328125 0.203125 0.09375 2.341806413e-38
0.328125 0.203125 0.109375 2.341806413e-38
0.328125 0.203125 0.125 2.341806413e-38
0.328125 0.203125 0.140625 2.341806413e-38
0.328125 0.203125 0.15625 2.341806413e-38
0.328125 0.203125 0.171875 2.341806413e-38
0.328125 0.203125 0.1875 2.341806413e-38
0.328125 0.21875 -0.109375 2.347508997e-38
0.328125 0.21875 -0.09375 2.341806413e-38
0.328125 0.21875 -0.078125 2.341806413e-38
0.328125 0.21875 -0.0625 2.341806413e-38
0.328125 0.21875 -0.046875 2.341806413e-38
0.328125 0.21875 -0.03125 2.341806413e-38
0.328125 0.21875 -0.015625 2.341806413e-38
0.328125 0.21875 0 2.341806413e-38
0.328125 0.21875 0.015625 2.341806413e-38
0.328125 0.21875 0.03125 2.341806413e-38
0.328125 0.21875 0.046875 2.341806413e-38
0.328125 0.21875 0.0625 2.341806413e-38
0.328125 0.21875 0.078125 2.341806413e-38
0.328125 0.21875 0.09375 2.341806413e-38
0.328125 0.21875 0.109375 2.341806413e-38
0.328125 0.21875 0.125 2.341806413e-38
0.328125 0.21875 0.140625 2.341806413e-38
0.328125 0.21875 0.15625 2.341806413e-38
0.328125 0.21875 0.171875 2.341806413e-38
0.328125 0.21875 0.1875 2.341806413e-38
0.328125 0.234375 -0.078125 2.341806413e-38
0.328125 0.234375 -0.0625 2.341806413e-38
0.328125 0.234375 -0.046875 2.341806413e-38
0.328125 0.234375 -0.03125 2.341806413e-38
0.328125 0.234375 -0.015625 2.341806413e-38
0.328125 0.234375 0 2.341806413e-38
0.328125 0.234375 0.015625 2.341806413e-38
0.328125 0.234375 0.03125 2.341806413e-38
0.328125 0.234375 0.046875 2.341806413e-38
0.328125 0.234375 0.0625 2.341806413e-38
0.328125 0.234375 0.078125 2.341806413e-38
0.328125 0.234375 0.09375 2.341806413e-38
0.328125 0.234375 0.109375 2.341806413e-38
0.328125 0.234375 0.125 2.341806413e-38
0.328125 0.234375 0.140625 2.341806413e-38
0.34375 -0.09375 -0.140625 2.347508997e-38
0.34375 -0.078125 -0.140625 2.347508997e-38
0.34375 -0.0625 -0.140625 2.347508997e-38
0.34375 -0.046875 -0.109375 9.155243387e-41
0.34375 -0.046875 -0.09375 9.155243387e-41
0.34375 -0.03125 -0.109375 9.155243387e-41
0.34375 -0.03125 -0.09375 9.155243387e-41
0.34375 -0.03125 -0.078125 9.155243387e-41
0.34375 -0.015625 -0.09375 9.155243387e-41
0.34375 -0.015625 -0.078125 9.155243387e-41
0.34375 0 -0.078125 9.155243387e-41
0.34375 0.015625 -0.078125 9.155243387e-41
0.34375 0.03125 -0.078125 9.155243387e-41
0.34375 0.046875 -0.078125 9.155243387e-41
0.34375 0.0625 -0.078125 9.155243387e-41
0.34375 0.078125 -0.09375 9.155243387e-41
0.34375 0.078125 -0.078125 9.155243387e-41
0.34375 0.09375 -0.09375 9.155243387e-41
0.34375 0.09375 -0.078125 9.155243387e-41
0.34375 0.109375 -0.109375 9.155243387e-41
0.34375 0.109375 -0.09375 9.155243387e-41
0.34375 0.109375 -0.078125 9.155243387e-41
0.34375 0.125 -0.109375 9.155243387e-41
0.34375 0.125 -0.09375 9.155243387e-41
0.34375 0.125 -0.078125 9.155243387e-41
0.34375 0.140625 -0.140625 2.347508997e-38
0.34375 0.140625 -0.125 2.347508997e-38
0.34375 0.140625 -0.109375 9.155243387e-41
0.34375 0.140625 -0.09375 9.155243387e-41
0.34375 0.140625 0.171875 2.341806413e-38
0.34375 0.15625 -0.140625 2.347508997e-38
0.34375 0.15625 -0.125 2.347508997e-38
0.34375 0.15625 -0.109375 2.347508997e-38
0.34375 0.15625 -0.09375 2.347508997e-38
0.34375 0.15625 -0.078125 2.347508997e-38
0.34375 0.15625 0.09375 2.341806413e-38
0.34375 0.15625 0.109375 2.341806413e-38
0.34375 0.15625 0.125 2.341806413e-38
0.34375 0.15625 0.140625 2.341806413e-38
0.34375 0.15625 0.15625 2.341806413e-38
0.34375 0.15625 0.171875 2.341806413e-38
0.34375 0.171875 -0.140625 2.347508997e-38
0.34375 0.171875 -0.125 2.347508997e-38
0.34375 0.171875 -0.109375 2.347508997e-38
0.34375 0.171875 -0.09375 2.347508997e-38
0.34375 0.171875 -0.078125 2.347508997e-38
0.34375 0.171875 -0.0625 2.341806413e-38
0.34375 0.171875 -0.046875 2.341806413e-38
0.34375 0.171875 -0.03125 2.341806413e-38
0.34375 0.171875 -0.015625 2.341806413e-38
0.34375 0.171875 0 2.341806413e-38
0.34375 0.171875 0.015625 2.341806413e-38
0.34375 0.171875 0.03125 2.341806413e-38
0.34375 0.171875 0.046875 2.341806413e-38
0.34375 0.171875 0.0625 2.341806413e-38
0.34375 0.171875 0.078125 2.341806413e-38
0.34375 0.171875 0.09375 2.341806413e-38
0.34375 0.171875 0.109375 2.341806413e-38
0.34375 0.171875 0.125 2.341806413e-38
0.34375 0.171875 0.140625 2.341806413e-38
0.34375 0.171875 0.15625 2.341806413e-38
0.34375 0.171875 0.171875 2.341806413e-38
0.34375 0.171875 0.1875 2.341806413e-38
0.34375 0.1875 -0.125 2.347508997e-38
0.34375 0.1875 -0.109375 2.347508997e-38
0.34375 0.1875 -0.09375 2.347508997e-38
0.34375 0.1875 -0.078125 2.347508997e-38
0.34375 0.1875 -0.0625 2.341806413e-38
0.34375 0.1875 -0.046875 2.341806413e-38
0.34375 0.1875 -0.03125 2.341806413e-38
0.34375 0.1875 -0.015625 2.341806413e-38
0.34375 0.1875 0 2.341806413e-38
0.34375 0.1875 0.015625 2.341806413e-38
0.34375 0.1875 0.03125 2.341806413e-38
0.34375 0.1875 0.046875 2.341806413e-38
0.34375 0.1875 0.0625 2.341806413e-38
0.34375 0.1875 0.078125 2.341806413e-38
0.34375 0.1875 0.09375 2.341806413e-38
0.34375 0.1875 0.109375 2.341806413e-38
0.34375 0.1875 0.125 2.341806413e-38
0.34375 0.1875 0.140625 2.341806413e-38
0.34375 0.1875 0.15625 2.341806413e-38
0.34375 0.1875 0.171875 2.341806413e-38
0.34375 0.1875 0.1875 2.341806413e-38
0.34375 0.203125 -0.109375 2.347508997e-38
0.34375 0.203125 -0.09375 2.341806413e-38
0.34375 0.203125 -0.078125 2.341806413e-38
0.34375 0.203125 -0.0625 2.341806413e-38
0.34375 0.203125 -0.046875 2.341806413e-38
0.34375 0.203125 -0.03125 2.341806413e-38
0.34375 0.203125 -0.015625 2.341806413e-38
0.34375 0.203125 0 2.341806413e-38
0.34375 0.203125 0.015625 2.341806413e-38
0.34375 0.203125 0.03125 2.341806413e-38
0.34375 0.203125 0.046875 2.341806413e-38
0.34375 0.203125 0.0625 2.341806413e-38
0.34375 0.203125 0.078125 2.341806413e-38
0.34375 0.203125 0.09375 2.341806413e-38
0.34375 0.203125 0.109375 2.341806413e-38
0.34375 0.203125 0.125 2.341806413e-38
0.34375 0.203125 0.140625 2.341806413e-38
0.34375 0.203125 0.15625 2.341806413e-38
0.34375 0.203125 0.171875 2.341806413e-38
0.34375 0.203125 0.1875 2.341806413e-38
0.34375 0.21875 -0.109375 2.347508997e-38
0.34375 0.21875 -0.09375 2.341806413e-38
0.34375 0.21875 -0.078125 2.341806413e-38
0.34375 0.21875 -0.0625 2.341806413e-38
0.34375 0.21875 -0.046875 2.341806413e-38
0.34375 0.21875 -0.03125 2.341806413e-38
0.34375 0.21875 -0.015625 2.341806413e-38
0.34375 0.21875 0 2.341806413e-38
0.34375 0.21875 0.015625 2.341806413e-38
0.34375 0.21875 0.03125 2.341806413e-38
0.34375 0.21875 0.046875 2.341806413e-38
0.34375 0.21875 0.0625 2.341806413e-38
0.34375 0.21875 0.078125 2.341806413e-38
0.34375 0.21875 0.09375 2.341806413e-38
0.34375 0.21875 0.109375 2.341806413e-38
0.34375 0.21875 0.125 2.341806413e-38
0.34375 0.21875 0.140625 2.341806413e-38
0.34375 0.21875 0.15625 2.341806413e-38
0.34375 0.21875 0.171875 2.341806413e-38
0.34375 0.21875 0.1875 2.341806413e-38
0.34375 0.234375 -0.046875 2.341806413e-38
0.34375 0.234375 -0.03125 2.341806413e-38
0.34375 0.234375 -0.015625 2.341806413e-38
0.34375 0.234375 0 2.341806413e-38
0.34375 0.234375 0.015625 2.341806413e-38
0.34375 0.234375 0.03125 2.341806413e-38
0.34375 0.234375 0.046875 2.341806413e-38
0.34375 0.234375 0.0625 2.341806413e-38
0.34375 0.234375 0.078125 2.341806413e-38
0.34375 0.234375 0.109375 2.341806413e-38
0.34375 0.234375 0.125 2.341806413e-38
0.359375 -0.09375 -0.140625 2.34266611e-38
0.359375 -0.078125 -0.140625 2.34266611e-38
0.359375 -0.0625 -0.140625 2.34266611e-38
0.359375 -0.046875 -0.140625 2.34266611e-38
0.359375 -0.03125 -0.140625 2.34266611e-38
0.359375 -0.03125 -0.109375 9.155243387e-41
0.359375 -0.03125 -0.09375 9.155243387e-41
0.359375 -0.03125 -0.078125 9.155243387e-41
0.359375 -0.015625 -0.109375 9.155243387e-41
0.359375 -0.015625 -0.09375 9.155243387e-41
0.359375 -0.015625 -0.078125 9.155243387e-41
0.359375 0 -0.078125 9.155243387e-41
0.359375 0.015625 -0.078125 9.155243387e-41
0.359375 0.03125 -0.078125 9.155243387e-41
0.359375 0.046875 -0.078125 9.155243387e-41
0.359375 0.0625 -0.078125 9.155243387e-41
0.359375 0.078125 -0.09375 9.155243387e-41
0.359375 0.078125 -0.078125 9.155243387e-41
0.359375 0.09375 -0.109375 9.155243387e-41
0.359375 0.09375 -0.09375 9.155243387e-41
0.359375 0.09375 -0.078125 9.155243387e-41
0.359375 0.109375 -0.109375 9.155243387e-41
0.359375 0.109375 -0.09375 9.155243387e-41
0.359375 0.109375 -0.078125 2.347508997e-38
0.359375 0.109375 0.140625 2.341806413e-38
0.359375 0.109375 0.15625 2.341806413e-38
0.359375 0.109375 0.171875 2.341806413e-38
0.359375 0.125 -0.109375 2.347508997e-38
0.359375 0.125 -0.09375 2.347508997e-38
0.359375 0.125 -0.078125 2.347508997e-38
0.359375 0.125 0.09375 2.341806413e-38
0.359375 0.125 0.109375 2.341806413e-38
0.359375 0.125 0.125 2.341806413e-38
0.359375 0.125 0.140625 2.341806413e-38
0.359375 0.125 0.15625 2.341806413e-38
0.359375 0.125 0.171875 2.341806413e-38
0.359375 0.125 0.1875 2.341806413e-38
0.359375 0.140625 -0.125 2.347508997e-38
0.359375 0.140625 -0.109375 2.347508997e-38
0.359375 0.140625 -0.09375 2.347508997e-38
0.359375 0.140625 -0.078125 2.347508997e-38
0.359375 0.140625 -0.0625 2.341806413e-38
0.359375 0.140625 -0.046875 2.341806413e-38
0.359375 0.140625 -0.03125 2.341806413e-38
0.359375 0.140625 -0.015625 2.341806413e-38
0.359375 0.140625 0 2.341806413e-38
0.359375 0.140625 0.015625 2.341806413e-38
0.359375 0.140625 0.03125 2.341806413e-38
0.359375 0.140625 0.0625 2.341806413e-38
0.359375 0.140625 0.078125 2.341806413e-38
0.359375 0.140625 0.09375 2.341806413e-38
0.359375 0.140625 0.109375 2.341806413e-38
0.359375 0.140625 0.125 2.341806413e-38
0.359375 0.140625 0.140625 2.341806413e-38
0.359375 0.140625 0.15625 2.341806413e-38
0.359375 0.140625 0.171875 2.341806413e-38
0.359375 0.140625 0.1875 2.341806413e-38
0.359375 0.15625 -0.109375 2.347508997e-38
0.359375 0.15625 -0.09375 2.347508997e-38
0.359375 0.15625 -0.078125 2.347508997e-38
0.359375 0.15625 -0.0625 2.341806413e-38
0.359375 0.15625 -0.046875 2.341806413e-38
0.359375 0.15625 -0.03125 2.341806413e-38
0.359375 0.15625 -0.015625 2.341806413e-38
0.359375 0.15625 0 2.341806413e-38
0.359375 0.15625 0.015625 2.341806413e-38
0.359375 0.15625 0.03125 2.341806413e-38
0.359375 0.15625 0.046875 2.341806413e-38
0.359375 0.15625 0.0625 2.341806413e-38
0.359375 0.15625 0.078125 2.341806413e-38
0.359375 0.15625 0.09375 2.341806413e-38
0.359375 0.15625 0.109375 2.341806413e-38
0.359375 0.15625 0.125 2.341806413e-38
0.359375 0.15625 0.140625 2.341806413e-38
0.359375 0.15625 0.15625 2.341806413e-38
0.359375 0.15625 0.171875 2.341806413e-38
0.359375 0.15625 0.1875 2.341806413e-38
0.359375 0.171875 -0.109375 2.347508997e-38
0.359375 0.171875 -0.09375 2.341806413e-38
0.359375 0.171875 -0.078125 2.347508997e-38
0.359375 0.171875 -0.0625 2.341806413e-38
0.359375 0.171875 -0.046875 2.341806413e-38
0.359375 0.171875 -0.03125 2.341806413e-38
0.359375 0.171875 -0.015625 2.341806413e-38
0.359375 0.171875 0 2.341806413e-38
0.359375 0.171875 0.015625 2.341806413e-38
0.359375 0.171875 0.03125 2.341806413e-38
0.359375 0.171875 0.046875 2.341806413e-38
0.359375 0.171875 0.0625 2.341806413e-38
0.359375 0.171875 0.078125 2.341806413e-38
0.359375 0.171875 0.09375 2.341806413e-38
0.359375 0.171875 0.109375 2.341806413e-38
0.359375 0.171875 0.125 2.341806413e-38
0.359375 0.171875 0.140625 2.341806413e-38
0.359375 0.171875 0.15625 2.341806413e-38
0.359375 0.171875 0.171875 2.341806413e-38
0.359375 0.171875 0.1875 2.341806413e-38
0.359375 0.1875 -0.109375 2.341806413e-38
0.359375 0.1875 -0.09375 2.341806413e-38
0.359375 0.1875 -0.078125 2.341806413e-38
0.359375 0.1875 -0.0625 2.341806413e-38
0.359375 0.1875 -0.046875 2.341806413e-38
0.359375 0.1875 -0.03125 2.341806413e-38
0.359375 0.1875 -0.015625 2.341806413e-38
0.359375 0.1875 0 2.341806413e-38
0.359375 0.1875 0.015625 2.341806413e-38
0.359375 0.1875 0.03125 2.341806413e-38
0.359375 0.1875 0.046875 2.341806413e-38
0.359375 0.1875 0.0625 2.341806413e-38
0.359375 0.1875 0.078125 2.341806413e-38
0.359375 0.1875 0.09375 2.341806413e-38
0.359375 0.1875 0.109375 2.341806413e-38
0.359375 0.1875 0.125 2.341806413e-38
0.359375 0.1875 0.140625 2.341806413e-38
0.359375 0.1875 0.15625 2.341806413e-38
0.359375 0.1875 0.171875 2.341806413e-38
0.359375 0.1875 0.1875 2.341806413e-38
0.359375 0.203125 -0.109375 2.341806413e-38
0.359375 0.203125 -0.078125 2.341806413e-38
0.359375 0.203125 -0.0625 2.341806413e-38
0.359375 0.203125 -0.046875 2.341806413e-38
0.359375 0.203125 -0.03125 2.341806413e-38
0.359375 0.203125 -0.015625 2.341806413e-38
0.359375 0.203125 0 2.341806413e-38
0.359375 0.203125 0.015625 2.341806413e-38
0.359375 0.203125 0.03125 2.341806413e-38
0.359375 0.203125 0.046875 2.341806413e-38
0.359375 0.203125 0.0625 2.341806413e-38
0.359375 0.203125 0.078125 2.341806413e-38
0.359375 0.203125 0.09375 2.341806413e-38
0.359375 0.203125 0.109375 2.341806413e-38
0.359375 0.203125 0.125 2.341806413e-38
0.359375 0.203125 0.140625 2.341806413e-38
0.359375 0.203125 0.15625 2.341806413e-38
0.359375 0.203125 0.171875 2.341806413e-38
0.359375 0.21875 -0.046875 2.341806413e-38
0.359375 0.21875 -0.015625 2.341806413e-38
0.359375 0.21875 0 2.341806413e-38
0.359375 0.21875 0.015625 2.341806413e-38
0.359375 0.21875 0.03125 2.341806413e-38
0.359375 0.21875 0.046875 2.341806413e-38
0.359375 0.21875 0.078125 2.341806413e-38
0.359375 0.21875 0.109375 2.341806413e-38
0.375 -0.09375 -0.140625 2.34266611e-38
0.375 -0.078125 -0.140625 2.34266611e-38
0.375 -0.0625 -0.140625 2.34266611e-38
0.375 -0.0625 -0.125 2.347508997e-38
0.375 -0.046875 -0.140625 2.34266611e-38
0.375 -0.046875 -0.125 2.347508997e-38
0.375 -0.046875 -0.109375 9.155243387e-41
0.375 -0.03125 -0.140625 2.34266611e-38
0.375 -0.03125 -0.109375 9.155243387e-41
0.375 -0.03125 -0.09375 9.155243387e-41
0.375 -0.015625 -0.109375 9.155243387e-41
0.375 -0.015625 -0.09375 9.155243387e-41
0.375 -0.015625 -0.078125 9.155243387e-41
0.375 0 -0.09375 9.155243387e-41
0.375 0 -0.078125 9.155243387e-41
0.375 0.015625 -0.078125 9.155243387e-41
0.375 0.03125 -0.078125 9.155243387e-41
0.375 0.046875 -0.09375 9.155243387e-41
0.375 0.046875 -0.078125 9.155243387e-41
0.375 0.0625 -0.09375 9.155243387e-41
0.375 0.0625 -0.078125 9.155243387e-41
0.375 0.078125 -0.09375 9.155243387e-41
0.375 0.078125 -0.078125 9.155243387e-41
0.375 0.078125 0.140625 2.341806413e-38
0.375 0.078125 0.15625 2.341806413e-38
0.375 0.078125 0.171875 2.341806413e-38
0.375 0.09375 -0.09375 9.155243387e-41
0.375 0.09375 -0.078125 9.155243387e-41
0.375 0.09375 0.109375 2.341806413e-38
0.375 0.09375 0.125 2.341806413e-38
0.375 0.09375 0.140625 2.341806413e-38
0.375 0.09375 0.15625 2.341806413e-38
0.375 0.09375 0.171875 2.341806413e-38
0.375 0.09375 0.1875 2.341806413e-38
0.375 0.109375 -0.109375 2.347508997e-38
0.375 0.109375 -0.09375 9.155243387e-41
0.375 0.109375 -0.078125 2.347508997e-38
0.375 0.109375 -0.0625 2.341806413e-38
0.375 0.109375 -0.046875 2.341806413e-38
0.375 0.109375 -0.03125 2.341806413e-38
0.375 0.109375 -0.015625 2.341806413e-38
0.375 0.109375 0 2.341806413e-38
0.375 0.109375 0.03125 2.341806413e-38
0.375 0.109375 0.046875 2.341806413e-38
0.375 0.109375 0.0625 2.341806413e-38
0.375 0.109375 0.078125 2.341806413e-38
0.375 0.109375 0.09375 2.341806413e-38
0.375 0.109375 0.109375 2.341806413e-38
0.375 0.109375 0.125 2.341806413e-38
0.375 0.109375 0.140625 2.341806413e-38
0.375 0.109375 0.15625 2.341806413e-38
0.375 0.109375 0.171875 2.341806413e-38
0.375 0.109375 0.1875 2.341806413e-38
0.375 0.109375 0.203125 2.341806413e-38
0.375 0.125 -0.109375 2.347508997e-38
0.375 0.125 -0.09375 2.347508997e-38
0.375 0.125 -0.078125 2.347508997e-38
0.375 0.125 -0.0625 2.341806413e-38
0.375 0.125 -0.046875 2.341806413e-38
0.375 0.125 -0.03125 2.341806413e-38
0.375 0.125 -0.015625 2.341806413e-38
0.375 0.125 0 2.341806413e-38
0.375 0.125 0.015625 2.341806413e-38
0.375 0.125 0.03125 2.341806413e-38
0.375 0.125 0.046875 2.341806413e-38
0.375 0.125 0.0625 2.341806413e-38
0.375 0.125 0.078125 2.341806413e-38
0.375 0.125 0.09375 2.341806413e-38
0.375 0.125 0.109375 2.341806413e-38
0.375 0.125 0.125 2.341806413e-38
0.375 0.125 0.140625 2.341806413e-38
0.375 0.125 0.15625 2.341806413e-38
0.375 0.125 0.171875 2.341806413e-38
0.375 0.125 0.1875 2.341806413e-38
0.375 0.125 0.203125 2.341806413e-38
0.375 0.140625 -0.109375 2.347508997e-38
0.375 0.140625 -0.078125 2.347508997e-38
0.375 0.140625 -0.0625 2.341806413e-38
0.375 0.140625 -0.046875 2.341806413e-38
0.375 0.140625 -0.03125 2.341806413e-38
0.375 0.140625 -0.015625 2.341806413e-38
0.375 0.140625 0 2.341806413e-38
0.375 0.140625 0.015625 2.341806413e-38
0.375 0.140625 0.03125 2.341806413e-38
0.375 0.140625 0.046875 2.341806413e-38
0.375 0.140625 0.0625 2.341806413e-38
0.375 0.140625 0.078125 2.341806413e-38
0.375 0.140625 0.09375 2.341806413e-38
0.375 0.140625 0.109375 2.341806413e-38
0.375 0.140625 0.125 2.341806413e-38
0.375 0.140625 0.140625 2.341806413e-38
0.375 0.140625 0.15625 2.341806413e-38
0.375 0.140625 0.171875 2.341806413e-38
0.375 0.140625 0.1875 2.341806413e-38
0.375 0.15625 -0.078125 2.341806413e-38
0.375 0.15625 -0.046875 2.341806413e-38
0.375 0.15625 -0.03125 2.341806413e-38
0.375 0.15625 -0.015625 2.341806413e-38
0.375 0.15625 0 2.341806413e-38
0.375 0.15625 0.015625 2.341806413e-38
0.375 0.15625 0.03125 2.341806413e-38
0.375 0.15625 0.046875 2.341806413e-38
0.375 0.15625 0.078125 2.341806413e-38
0.375 0.15625 0.109375 2.341806413e-38
0.375 0.15625 0.140625 2.341806413e-38
0.375 0.15625 0.171875 2.341806413e-38
0.375 0.171875 -0.03125 2.341806413e-38
0.375 0.171875 -0.015625 2.341806413e-38
0.375 0.171875 0 2.341806413e-38
0.375 0.171875 0.03125 2.341806413e-38
0.375 0.1875 -0.015625 2.341806413e-38
0.390625 -0.09375 -0.140625 2.34266611e-38
0.390625 -0.078125 -0.140625 2.34266611e-38
0.390625 -0.0625 -0.140625 2.34266611e-38
0.390625 -0.0625 -0.125 2.347508997e-38
0.390625 -0.046875 -0.140625 2.34266611e-38
0.390625 -0.046875 -0.125 2.347508997e-38
0.390625 -0.03125 -0.140625 2.34266611e-38
0.390625 -0.03125 -0.125 2.347508997e-38
0.390625 -0.03125 -0.109375 9.155243387e-41
0.390625 -0.03125 -0.09375 9.155243387e-41
0.390625 -0.015625 -0.109375 9.155243387e-41
0.390625 -0.015625 -0.09375 9.155243387e-41
0.390625 -0.015625 -0.078125 9.155243387e-41
0.390625 0 -0.109375 9.155243387e-41
0.390625 0 -0.09375 9.155243387e-41
0.390625 0 -0.078125 9.155243387e-41
0.390625 0.015625 -0.078125 9.155243387e-41
0.390625 0.03125 -0.09375 9.155243387e-41
0.390625 0.046875 -0.09375 9.155243387e-41
0.390625 0.046875 -0.078125 9.155243387e-41
0.390625 0.046875 0.171875 2.341806413e-38
0.390625 0.0625 -0.09375 2.347508997e-38
0.390625 0.0625 0.140625 2.341806413e-38
0.390625 0.0625 0.15625 2.341806413e-38
0.390625 0.0625 0.171875 2.341806413e-38
0.390625 0.0625 0.1875 2.341806413e-38
0.390625 0.078125 -0.09375 2.347508997e-38
0.390625 0.078125 -0.078125 2.347508997e-38
0.390625 0.078125 -0.046875 2.341806413e-38
0.390625 0.078125 0 2.341806413e-38
0.390625 0.078125 0.03125 2.341806413e-38
0.390625 0.078125 0.09375 2.341806413e-38
0.390625 0.078125 0.109375 2.341806413e-38
0.390625 0.078125 0.125 2.341806413e-38
0.390625 0.078125 0.140625 2.341806413e-38
0.390625 0.078125 0.15625 2.341806413e-38
0.390625 0.078125 0.171875 2.341806413e-38
0.390625 0.078125 0.1875 2.341806413e-38
0.390625 0.09375 -0.03125 2.341806413e-38
0.390625 0.09375 -0.015625 2.341806413e-38
0.390625 0.09375 0 2.341806413e-38
0.390625 0.09375 0.015625 2.341806413e-38
0.390625 0.09375 0.03125 2.341806413e-38
0.390625 0.09375 0.046875 2.341806413e-38
0.390625 0.09375 0.0625 2.341806413e-38
0.390625 0.09375 0.078125 2.341806413e-38
0.390625 0.09375 0.09375 2.341806413e-38
0.390625 0.09375 0.109375 2.341806413e-38
0.390625 0.09375 0.125 2.341806413e-38
0.390625 0.09375 0.140625 2.341806413e-38
0.390625 0.09375 0.15625 2.341806413e-38
0.390625 0.09375 0.171875 2.341806413e-38
0.390625 0.09375 0.1875 2.341806413e-38
0.390625 0.09375 0.203125 2.341806413e-38
0.390625 0.109375 -0.046875 2.341806413e-38
0.390625 0.109375 -0.03125 2.341806413e-38
0.390625 0.109375 -0.015625 2.341806413e-38
0.390625 0.109375 0 2.341806413e-38
0.390625 0.109375 0.015625 2.341806413e-38
0.390625 0.109375 0.03125 2.341806413e-38
0.390625 0.109375 0.046875 2.341806413e-38
0.390625 0.109375 0.0625 2.341806413e-38
0.390625 0.109375 0.078125 2.341806413e-38
0.390625 0.109375 0.09375 2.341806413e-38
0.390625 0.109375 0.109375 2.341806413e-38
0.390625 0.109375 0.125 2.341806413e-38
0.390625 0.109375 0.140625 2.341806413e-38
0.390625 0.109375 0.15625 2.341806413e-38
0.390625 0.109375 0.171875 2.341806413e-38
0.390625 0.109375 0.1875 2.341806413e-38
0.390625 0.109375 0.203125 2.341806413e-38
0.390625 0.125 -0.046875 2.341806413e-38
0.390625 0.125 -0.03125 2.341806413e-38
0.390625 0.125 -0.015625 2.341806413e-38
0.390625 0.125 0 2.341806413e-38
0.390625 0.125 0.015625 2.341806413e-38
0.390625 0.125 0.03125 2.341806413e-38
0.390625 0.125 0.046875 2.341806413e-38
0.390625 0.125 0.0625 2.341806413e-38
0.390625 0.125 0.078125 2.341806413e-38
0.390625 0.125 0.09375 2.341806413e-38
0.390625 0.125 0.109375 2.341806413e-38
0.390625 0.125 0.125 2.341806413e-38
0.390625 0.125 0.140625 2.341806413e-38
0.390625 0.125 0.15625 2.341806413e-38
0.390625 0.125 0.171875 2.341806413e-38
0.390625 0.125 0.1875 2.341806413e-38
0.390625 0.140625 -0.015625 2.341806413e-38
0.40625 -0.109375 -0.21875 2.332657336e-38
0.40625 -0.109375 -0.203125 2.332657336e-38
0.40625 -0.109375 -0.1875 9.155243387e-41
0.40625 -0.109375 -0.171875 2.332657336e-38
0.40625 -0.09375 -0.203125 3.013212088e-41
0.40625 -0.09375 -0.1875 2.332657336e-38
0.40625 -0.09375 -0.171875 9.155243387e-41
0.40625 -0.09375 -0.140625 2.34266611e-38
0.40625 -0.078125 -0.140625 2.34266611e-38
0.40625 -0.0625 -0.15625 2.341806413e-38
0.40625 -0.0625 -0.140625 2.341806413e-38
0.40625 -0.0625 -0.125 2.341806413e-38
0.40625 -0.046875 -0.15625 2.341806413e-38
0.40625 -0.046875 -0.140625 2.34266611e-38
0.40625 -0.046875 -0.125 2.347508997e-38
0.40625 -0.046875 -0.109375 2.341806413e-38
0.40625 -0.03125 -0.140625 2.341806413e-38
0.40625 -0.03125 -0.125 2.347508997e-38
0.40625 -0.03125 -0.109375 2.347508997e-38
0.40625 -0.03125 -0.09375 2.341806413e-38
0.40625 -0.015625 -0.140625 2.341806413e-38
0.40625 -0.015625 -0.109375 2.347508997e-38
0.40625 -0.015625 -0.09375 9.155243387e-41
0.40625 0 -0.109375 2.347508997e-38
0.40625 0 -0.09375 2.347508997e-38
0.40625 0 -0.078125 2.347508997e-38
0.40625 0.015625 -0.09375 9.155243387e-41
0.40625 0.015625 0.140625 2.341806413e-38
0.40625 0.015625 0.171875 2.341806413e-38
0.40625 0.03125 -0.109375 2.347508997e-38
0.40625 0.03125 -0.09375 2.347508997e-38
0.40625 0.03125 -0.078125 2.347508997e-38
0.40625 0.03125 0.140625 2.341806413e-38
0.40625 0.03125 0.15625 2.341806413e-38
0.40625 0.03125 0.171875 2.341806413e-38
0.40625 0.03125 0.1875 2.341806413e-38
0.40625 0.046875 -0.09375 2.347508997e-38
0.40625 0.046875 -0.078125 2.347508997e-38
0.40625 0.046875 -0.046875 2.341806413e-38
0.40625 0.046875 -0.03125 2.341806413e-38
0.40625 0.046875 0 2.341806413e-38
0.40625 0.046875 0.09375 2.341806413e-38
0.40625 0.046875 0.109375 2.341806413e-38
0.40625 0.046875 0.125 2.341806413e-38
0.40625 0.046875 0.140625 2.341806413e-38
0.40625 0.046875 0.15625 2.341806413e-38
0.40625 0.046875 0.171875 2.341806413e-38
0.40625 0.046875 0.1875 2.341806413e-38
0.40625 0.0625 -0.078125 2.347508997e-38
0.40625 0.0625 -0.046875 2.341806413e-38
0.40625 0.0625 -0.03125 2.341806413e-38
0.40625 0.0625 -0.015625 2.341806413e-38
0.40625 0.0625 0 2.341806413e-38
0.40625 0.0625 0.03125 2.341806413e-38
0.40625 0.0625 0.0625 2.341806413e-38
0.40625 0.0625 0.078125 2.341806413e-38
0.40625 0.0625 0.09375 2.341806413e-38
0.40625 0.0625 0.109375 2.341806413e-38
0.40625 0.0625 0.125 2.341806413e-38
0.40625 0.0625 0.140625 2.341806413e-38
0.40625 0.0625 0.15625 2.341806413e-38
0.40625 0.0625 0.171875 2.341806413e-38
0.40625 0.0625 0.1875 2.341806413e-38
0.40625 0.078125 -0.046875 2.341806413e-38
0.40625 0.078125 -0.03125 2.341806413e-38
0.40625 0.078125 -0.015625 2.341806413e-38
0.40625 0.078125 0 2.341806413e-38
0.40625 0.078125 0.015625 2.341806413e-38
0.40625 0.078125 0.03125 2.341806413e-38
0.40625 0.078125 0.046875 2.341806413e-38
0.40625 0.078125 0.0625 2.341806413e-38
0.40625 0.078125 0.078125 2.341806413e-38
0.40625 0.078125 0.09375 2.341806413e-38
0.40625 0.078125 0.109375 2.341806413e-38
0.40625 0.078125 0.125 2.341806413e-38
0.40625 0.078125 0.140625 2.341806413e-38
0.40625 0.078125 0.15625 2.341806413e-38
0.40625 0.078125 0.171875 2.341806413e-38
0.40625 0.078125 0.1875 2.341806413e-38
0.40625 0.09375 -0.03125 2.341806413e-38
0.40625 0.09375 -0.015625 2.341806413e-38
0.40625 0.09375 0 2.341806413e-38
0.40625 0.09375 0.015625 2.341806413e-38
0.40625 0.09375 0.03125 2.341806413e-38
0.40625 0.09375 0.046875 2.341806413e-38
0.40625 0.09375 0.0625 2.341806413e-38
0.40625 0.09375 0.078125 2.341806413e-38
0.40625 0.09375 0.09375 2.341806413e-38
0.40625 0.09375 0.109375 2.341806413e-38
0.40625 0.09375 0.125 2.341806413e-38
0.40625 0.09375 0.140625 2.341806413e-38
0.40625 0.09375 0.15625 2.341806413e-38
0.40625 0.09375 0.171875 2.341806413e-38
0.40625 0.09375 0.1875 2.341806413e-38
0.40625 0.109375 -0.015625 2.341806413e-38
0.40625 0.109375 0 2.341806413e-38
0.40625 0.109375 0.140625 2.341806413e-38
0.40625 0.109375 0.171875 2.341806413e-38
0.421875 -0.09375 -0.203125 2.332657336e-38
0.421875 -0.09375 -0.1875 2.332657336e-38
0.421875 -0.09375 -0.171875 2.332657336e-38
0.421875 -0.09375 -0.15625 2.332657336e-38
0.421875 -0.09375 -0.140625 2.332657336e-38
0.421875 -0.078125 -0.140625 2.341806413e-38
0.421875 -0.078125 -0.125 2.341806413e-38
0.421875 -0.0625 -0.15625 2.341806413e-38
0.421875 -0.0625 -0.140625 2.341806413e-38
0.421875 -0.0625 -0.125 2.341806413e-38
0.421875 -0.0625 -0.109375 2.341806413e-38
0.421875 -0.0625 -0.09375 2.341806413e-38
0.421875 -0.046875 -0.15625 2.341806413e-38
0.421875 -0.046875 -0.140625 2.341806413e-38
0.421875 -0.046875 -0.125 2.341806413e-38
0.421875 -0.046875 -0.109375 2.341806413e-38
0.421875 -0.046875 -0.09375 2.341806413e-38
0.421875 -0.03125 -0.140625 2.341806413e-38
0.421875 -0.03125 -0.125 2.341806413e-38
0.421875 -0.03125 -0.109375 2.341806413e-38
0.421875 -0.03125 -0.09375 2.341806413e-38
0.421875 -0.03125 -0.078125 2.341806413e-38
0.421875 -0.03125 -0.0625 2.341806413e-38
0.421875 -0.03125 -0.046875 2.341806413e-38
0.421875 -0.015625 -0.140625 2.341806413e-38
0.421875 -0.015625 -0.125 2.341806413e-38
0.421875 -0.015625 -0.109375 2.341806413e-38
0.421875 -0.015625 -0.09375 2.341806413e-38
0.421875 -0.015625 -0.078125 2.341806413e-38
0.421875 -0.015625 -0.0625 2.341806413e-38
0.421875 -0.015625 -0.046875 2.341806413e-38
0.421875 -0.015625 -0.03125 2.341806413e-38
0.421875 -0.015625 -0.015625 2.341806413e-38
0.421875 -0.015625 0 2.341806413e-38
0.421875 -0.015625 0.015625 2.341806413e-38
0.421875 -0.015625 0.140625 2.341806413e-38
0.421875 -0.015625 0.15625 2.341806413e-38
0.421875 -0.015625 0.171875 2.341806413e-38
0.421875 0 -0.109375 2.341806413e-38
0.421875 0 -0.09375 2.347508997e-38
0.421875 0 -0.078125 2.341806413e-38
0.421875 0 -0.0625 2.341806413e-38
0.421875 0 -0.046875 2.341806413e-38
0.421875 0 -0.03125 2.341806413e-38
0.421875 0 -0.015625 2.341806413e-38
0.421875 0 0 2.341806413e-38
0.421875 0 0.015625 2.341806413e-38
0.421875 0 0.03125 2.341806413e-38
0.421875 0 0.046875 2.341806413e-38
0.421875 0 0.0625 2.341806413e-38
0.421875 0 0.078125 2.341806413e-38
0.421875 0 0.09375 2.341806413e-38
0.421875 0 0.109375 2.341806413e-38
0.421875 0 0.125 2.341806413e-38
0.421875 0 0.140625 2.341806413e-38
0.421875 0 0.15625 2.341806413e-38
0.421875 0 0.171875 2.341806413e-38
0.421875 0 0.1875 2.341806413e-38
0.421875 0.015625 -0.125 2.341806413e-38
0.421875 0.015625 -0.109375 2.341806413e-38
0.421875 0.015625 -0.09375 2.347508997e-38
0.421875 0.015625 -0.078125 2.341806413e-38
0.421875 0.015625 -0.0625 2.341806413e-38
0.421875 0.015625 -0.046875 2.341806413e-38
0.421875 0.015625 -0.03125 2.341806413e-38
0.421875 0.015625 -0.015625 2.341806413e-38
0.421875 0.015625 0 2.341806413e-38
0.421875 0.015625 0.015625 2.341806413e-38
0.421875 0.015625 0.03125 2.341806413e-38
0.421875 0.015625 0.046875 2.341806413e-38
0.421875 0.015625 0.0625 2.341806413e-38
0.421875 0.015625 0.078125 2.341806413e-38
0.421875 0.015625 0.09375 2.341806413e-38
0.421875 0.015625 0.109375 2.341806413e-38
0.421875 0.015625 0.125 2.341806413e-38
0.421875 0.015625 0.140625 2.341806413e-38
0.421875 0.015625 0.15625 2.341806413e-38
0.421875 0.015625 0.171875 2.341806413e-38
0.421875 0.015625 0.1875 2.341806413e-38
0.421875 0.03125 -0.109375 2.347508997e-38
0.421875 0.03125 -0.09375 2.347508997e-38
0.421875 0.03125 -0.078125 2.341806413e-38
0.421875 0.03125 -0.0625 2.341806413e-38
0.421875 0.03125 -0.046875 2.341806413e-38
0.421875 0.03125 -0.03125 2.341806413e-38
0.421875 0.03125 -0.015625 2.341806413e-38
0.421875 0.03125 0 2.341806413e-38
0.421875 0.03125 0.015625 2.341806413e-38
0.421875 0.03125 0.03125 2.341806413e-38
0.421875 0.03125 0.046875 2.341806413e-38
0.421875 0.03125 0.0625 2.341806413e-38
0.421875 0.03125 0.078125 2.341806413e-38
0.421875 0.03125 0.09375 2.341806413e-38
0.421875 0.03125 0.109375 2.341806413e-38
0.421875 0.03125 0.125 2.341806413e-38
0.421875 0.03125 0.140625 2.341806413e-38
0.421875 0.03125 0.15625 2.341806413e-38
0.421875 0.03125 0.171875 2.341806413e-38
0.421875 0.03125 0.1875 2.341806413e-38
0.421875 0.046875 -0.0625 2.341806413e-38
0.421875 0.046875 -0.046875 2.341806413e-38
0.421875 0.046875 -0.03125 2.341806413e-38
0.421875 0.046875 -0.015625 2.341806413e-38
0.421875 0.046875 0 2.341806413e-38
0.421875 0.046875 0.015625 2.341806413e-38
0.421875 0.046875 0.03125 2.341806413e-38
0.421875 0.046875 0.046875 2.341806413e-38
0.421875 0.046875 0.0625 2.341806413e-38
0.421875 0.046875 0.09375 2.341806413e-38
0.421875 0.046875 0.109375 2.341806413e-38
0.421875 0.046875 0.125 2.341806413e-38
0.421875 0.046875 0.140625 2.341806413e-38
0.421875 0.046875 0.15625 2.341806413e-38
0.421875 0.046875 0.171875 2.341806413e-38
0.421875 0.046875 0.1875 2.341806413e-38
0.421875 0.0625 -0.046875 2.341806413e-38
0.421875 0.0625 -0.03125 2.341806413e-38
0.421875 0.0625 -0.015625 2.341806413e-38
0.421875 0.0625 0 2.341806413e-38
0.421875 0.0625 0.03125 2.341806413e-38
0.421875 0.0625 0.140625 2.341806413e-38
0.421875 0.0625 0.171875 2.341806413e-38
0.421875 0.078125 -0.046875 2.341806413e-38
0.421875 0.078125 -0.015625 2.341806413e-38
0.421875 0.078125 0 2.341806413e-38
0.421875 0.078125 0.03125 2.341806413e-38
0.4375 -0.09375 -0.203125 2.332657336e-38
0.4375 -0.09375 -0.1875 2.332657336e-38
0.4375 -0.09375 -0.171875 2.332657336e-38
0.4375 -0.09375 -0.15625 2.332657336e-38
0.4375 -0.09375 -0.140625 2.332657336e-38
0.4375 -0.078125 -0.15625 2.341806413e-38
0.4375 -0.078125 -0.140625 2.341806413e-38
0.4375 -0.078125 -0.125 2.341806413e-38
0.4375 -0.078125 -0.109375 2.341806413e-38
0.4375 -0.078125 -0.09375 2.341806413e-38
0.4375 -0.078125 -0.078125 2.341806413e-38
0.4375 -0.0625 -0.171875 2.341806413e-38
0.4375 -0.0625 -0.15625 2.341806413e-38
0.4375 -0.0625 -0.140625 2.341806413e-38
0.4375 -0.0625 -0.125 2.341806413e-38
0.4375 -0.0625 -0.109375 2.341806413e-38
0.4375 -0.0625 -0.09375 2.341806413e-38
0.4375 -0.0625 -0.078125 2.341806413e-38
0.4375 -0.0625 -0.0625 2.341806413e-38
0.4375 -0.0625 -0.046875 2.341806413e-38
0.4375 -0.0625 -0.03125 2.341806413e-38
0.4375 -0.046875 -0.171875 2.341806413e-38
0.4375 -0.046875 -0.15625 2.341806413e-38
0.4375 -0.046875 -0.140625 2.341806413e-38
0.4375 -0.046875 -0.125 2.341806413e-38
0.4375 -0.046875 -0.109375 2.341806413e-38
0.4375 -0.046875 -0.09375 2.341806413e-38
0.4375 -0.046875 -0.078125 2.341806413e-38
0.4375 -0.046875 -0.0625 2.341806413e-38
0.4375 -0.046875 -0.046875 2.341806413e-38
0.4375 -0.046875 -0.03125 2.341806413e-38
0.4375 -0.046875 -0.015625 2.341806413e-38
0.4375 -0.046875 0 2.341806413e-38
0.4375 -0.046875 0.015625 2.341806413e-38
0.4375 -0.03125 -0.171875 2.341806413e-38
0.4375 -0.03125 -0.15625 2.341806413e-38
0.4375 -0.03125 -0.140625 2.341806413e-38
0.4375 -0.03125 -0.125 2.341806413e-38
0.4375 -0.03125 -0.109375 2.341806413e-38
0.4375 -0.03125 -0.09375 2.341806413e-38
0.4375 -0.03125 -0.078125 2.341806413e-38
0.4375 -0.03125 -0.0625 2.341806413e-38
0.4375 -0.03125 -0.046875 2.341806413e-38
0.4375 -0.03125 -0.03125 2.341806413e-38
0.4375 -0.03125 -0.015625 2.341806413e-38
0.4375 -0.03125 0 2.341806413e-38
0.4375 -0.03125 0.015625 2.341806413e-38
0.4375 -0.03125 0.03125 2.341806413e-38
0.4375 -0.03125 0.046875 2.341806413e-38
0.4375 -0.03125 0.0625 2.341806413e-38
0.4375 -0.03125 0.078125 2.341806413e-38
0.4375 -0.03125 0.09375 2.341806413e-38
0.4375 -0.03125 0.109375 2.341806413e-38
0.4375 -0.03125 0.125 2.341806413e-38
0.4375 -0.03125 0.140625 2.341806413e-38
0.4375 -0.03125 0.15625 2.341806413e-38
0.4375 -0.03125 0.171875 2.341806413e-38
0.4375 -0.015625 -0.171875 2.341806413e-38
0.4375 -0.015625 -0.15625 2.341806413e-38
0.4375 -0.015625 -0.140625 2.341806413e-38
0.4375 -0.015625 -0.125 2.341806413e-38
0.4375 -0.015625 -0.109375 2.341806413e-38
0.4375 -0.015625 -0.09375 2.341806413e-38
0.4375 -0.015625 -0.078125 2.341806413e-38
0.4375 -0.015625 -0.0625 2.341806413e-38
0.4375 -0.015625 -0.046875 2.341806413e-38
0.4375 -0.015625 -0.03125 2.341806413e-38
0.4375 -0.015625 -0.015625 2.341806413e-38
0.4375 -0.015625 0 2.341806413e-38
0.4375 -0.015625 0.015625 2.341806413e-38
0.4375 -0.015625 0.03125 2.341806413e-38
0.4375 -0.015625 0.046875 2.341806413e-38
0.4375 -0.015625 0.0625 2.341806413e-38
0.4375 -0.015625 0.078125 2.341806413e-38
0.4375 -0.015625 0.09375 2.341806413e-38
0.4375 -0.015625 0.109375 2.341806413e-38
0.4375 -0.015625 0.125 2.341806413e-38
0.4375 -0.015625 0.140625 2.341806413e-38
0.4375 -0.015625 0.15625 2.341806413e-38
0.4375 -0.015625 0.171875 2.341806413e-38
0.4375 -0.015625 0.1875 2.341806413e-38
0.4375 0 -0.140625 2.341806413e-38
0.4375 0 -0.125 2.341806413e-38
0.4375 0 -0.109375 2.341806413e-38
0.4375 0 -0.09375 2.341806413e-38
0.4375 0 -0.078125 2.341806413e-38
0.4375 0 -0.0625 2.341806413e-38
0.4375 0 -0.046875 2.341806413e-38
0.4375 0 -0.03125 2.341806413e-38
0.4375 0 -0.015625 2.341806413e-38
0.4375 0 0 2.341806413e-38
0.4375 0 0.015625 2.341806413e-38
0.4375 0 0.03125 2.341806413e-38
0.4375 0 0.046875 2.341806413e-38
0.4375 0 0.0625 2.341806413e-38
0.4375 0 0.078125 2.341806413e-38
0.4375 0 0.09375 2.341806413e-38
0.4375 0 0.109375 2.341806413e-38
0.4375 0 0.125 2.341806413e-38
0.4375 0 0.140625 2.341806413e-38
0.4375 0 0.15625 2.341806413e-38
0.4375 0 0.171875 2.341806413e-38
0.4375 0 0.1875 2.341806413e-38
0.4375 0 0.203125 2.341806413e-38
0.4375 0.015625 -0.125 2.341806413e-38
0.4375 0.015625 -0.109375 2.341806413e-38
0.4375 0.015625 -0.09375 2.341806413e-38
0.4375 0.015625 -0.078125 2.341806413e-38
0.4375 0.015625 -0.0625 2.341806413e-38
0.4375 0.015625 -0.046875 2.341806413e-38
0.4375 0.015625 -0.03125 2.341806413e-38
0.4375 0.015625 -0.015625 2.341806413e-38
0.4375 0.015625 0 2.341806413e-38
0.4375 0.015625 0.015625 2.341806413e-38
0.4375 0.015625 0.03125 2.341806413e-38
0.4375 0.015625 0.046875 2.341806413e-38
0.4375 0.015625 0.0625 2.341806413e-38
0.4375 0.015625 0.078125 2.341806413e-38
0.4375 0.015625 0.09375 2.341806413e-38
0.4375 0.015625 0.109375 2.341806413e-38
0.4375 0.015625 0.125 2.341806413e-38
0.4375 0.015625 0.140625 2.341806413e-38
0.4375 0.015625 0.15625 2.341806413e-38
0.4375 0.015625 0.171875 2.341806413e-38
0.4375 0.015625 0.1875 2.341806413e-38
0.4375 0.015625 0.203125 2.341806413e-38
0.4375 0.03125 -0.109375 2.341806413e-38
0.4375 0.03125 -0.09375 2.341806413e-38
0.4375 0.03125 -0.078125 2.341806413e-38
0.4375 0.03125 -0.0625 2.341806413e-38
0.4375 0.03125 -0.046875 2.341806413e-38
0.4375 0.03125 -0.03125 2.341806413e-38
0.4375 0.03125 -0.015625 2.341806413e-38
0.4375 0.03125 0 2.341806413e-38
0.4375 0.03125 0.015625 2.341806413e-38
0.4375 0.03125 0.03125 2.341806413e-38
0.4375 0.03125 0.046875 2.341806413e-38
0.4375 0.03125 0.0625 2.341806413e-38
0.4375 0.03125 0.078125 2.341806413e-38
0.4375 0.03125 0.09375 2.341806413e-38
0.4375 0.03125 0.109375 2.341806413e-38
0.4375 0.03125 0.125 2.341806413e-38
0.4375 0.03125 0.140625 2.341806413e-38
0.4375 0.03125 0.15625 2.341806413e-38
0.4375 0.03125 0.171875 2.341806413e-38
0.4375 0.03125 0.1875 2.341806413e-38
0.4375 0.046875 -0.078125 2.341806413e-38
0.4375 0.046875 -0.0625 2.341806413e-38
0.4375 0.046875 -0.046875 2.341806413e-38
0.4375 0.046875 -0.03125 2.341806413e-38
0.4375 0.046875 -0.015625 2.341806413e-38
0.4375 0.046875 0 2.341806413e-38
0.4375 0.046875 0.015625 2.341806413e-38
0.4375 0.046875 0.03125 2.341806413e-38
0.4375 0.046875 0.046875 2.341806413e-38
0.4375 0.046875 0.0625 2.341806413e-38
0.4375 0.046875 0.078125 2.341806413e-38
0.4375 0.046875 0.09375 2.341806413e-38
0.4375 0.046875 0.109375 2.341806413e-38
0.4375 0.046875 0.140625 2.341806413e-38
0.4375 0.046875 0.15625 2.341806413e-38
0.4375 0.046875 0.171875 2.341806413e-38
0.4375 0.0625 -0.046875 2.341806413e-38
0.4375 0.0625 -0.03125 2.341806413e-38
0.4375 0.0625 -0.015625 2.341806413e-38
0.4375 0.0625 0 2.341806413e-38
0.4375 0.078125 0 2.341806413e-38
0.453125 -0.078125 -0.15625 2.332657336e-38
0.453125 -0.078125 -0.140625 2.341806413e-38
0.453125 -0.078125 -0.125 2.341806413e-38
0.453125 -0.078125 -0.109375 2.341806413e-38
0.453125 -0.078125 -0.09375 2.341806413e-38
0.453125 -0.078125 -0.078125 2.341806413e-38
0.453125 -0.078125 -0.0625 2.341806413e-38
0.453125 -0.078125 -0.046875 2.341806413e-38
0.453125 -0.0625 -0.1875 2.341806413e-38
0.453125 -0.0625 -0.171875 2.341806413e-38
0.453125 -0.0625 -0.15625 2.341806413e-38
0.453125 -0.0625 -0.140625 2.341806413e-38
0.453125 -0.0625 -0.125 2.341806413e-38
0.453125 -0.0625 -0.109375 2.341806413e-38
0.453125 -0.0625 -0.09375 2.341806413e-38
0.453125 -0.0625 -0.078125 2.341806413e-38
0.453125 -0.0625 -0.0625 2.341806413e-38
0.453125 -0.0625 -0.046875 2.341806413e-38
0.453125 -0.0625 -0.03125 2.341806413e-38
0.453125 -0.0625 -0.015625 2.341806413e-38
0.453125 -0.0625 0 2.341806413e-38
0.453125 -0.046875 -0.1875 2.341806413e-38
0.453125 -0.046875 -0.171875 2.341806413e-38
0.453125 -0.046875 -0.15625 2.341806413e-38
0.453125 -0.046875 -0.140625 2.341806413e-38
0.453125 -0.046875 -0.125 2.341806413e-38
0.453125 -0.046875 -0.109375 2.341806413e-38
0.453125 -0.046875 -0.09375 2.341806413e-38
0.453125 -0.046875 -0.078125 2.341806413e-38
0.453125 -0.046875 -0.0625 2.341806413e-38
0.453125 -0.046875 -0.046875 2.341806413e-38
0.453125 -0.046875 -0.03125 2.341806413e-38
0.453125 -0.046875 -0.015625 2.341806413e-38
0.453125 -0.046875 0 2.341806413e-38
0.453125 -0.046875 0.015625 2.341806413e-38
0.453125 -0.046875 0.03125 2.341806413e-38
0.453125 -0.046875 0.046875 2.341806413e-38
0.453125 -0.046875 0.0625 2.341806413e-38
0.453125 -0.046875 0.078125 2.341806413e-38
0.453125 -0.046875 0.09375 2.341806413e-38
0.453125 -0.03125 -0.1875 2.341806413e-38
0.453125 -0.03125 -0.171875 2.341806413e-38
0.453125 -0.03125 -0.15625 2.341806413e-38
0.453125 -0.03125 -0.140625 2.341806413e-38
0.453125 -0.03125 -0.125 2.341806413e-38
0.453125 -0.03125 -0.109375 2.341806413e-38
0.453125 -0.03125 -0.09375 2.341806413e-38
0.453125 -0.03125 -0.078125 2.341806413e-38
0.453125 -0.03125 -0.0625 2.341806413e-38
0.453125 -0.03125 -0.046875 2.341806413e-38
0.453125 -0.03125 -0.03125 2.341806413e-38
0.453125 -0.03125 -0.015625 2.341806413e-38
0.453125 -0.03125 0 2.341806413e-38
0.453125 -0.03125 0.015625 2.341806413e-38
0.453125 -0.03125 0.03125 2.341806413e-38
0.453125 -0.03125 0.046875 2.341806413e-38
0.453125 -0.03125 0.0625 2.341806413e-38
0.453125 -0.03125 0.078125 2.341806413e-38
0.453125 -0.03125 0.09375 2.341806413e-38
0.453125 -0.03125 0.109375 2.341806413e-38
0.453125 -0.03125 0.125 2.341806413e-38
0.453125 -0.03125 0.140625 2.341806413e-38
0.453125 -0.03125 0.15625 2.341806413e-38
0.453125 -0.03125 0.171875 2.341806413e-38
0.453125 -0.03125 0.1875 2.341806413e-38
0.453125 -0.015625 -0.171875 2.341806413e-38
0.453125 -0.015625 -0.15625 2.341806413e-38
0.453125 -0.015625 -0.140625 2.341806413e-38
0.453125 -0.015625 -0.125 2.341806413e-38
0.453125 -0.015625 -0.109375 2.341806413e-38
0.453125 -0.015625 -0.09375 2.341806413e-38
0.453125 -0.015625 -0.078125 2.341806413e-38
0.453125 -0.015625 -0.0625 2.341806413e-38
0.453125 -0.015625 -0.046875 2.341806413e-38
0.453125 -0.015625 -0.03125 2.341806413e-38
0.453125 -0.015625 -0.015625 2.341806413e-38
0.453125 -0.015625 0 2.341806413e-38
0.453125 -0.015625 0.015625 2.341806413e-38
0.453125 -0.015625 0.03125 2.341806413e-38
0.453125 -0.015625 0.046875 2.341806413e-38
0.453125 -0.015625 0.0625 2.341806413e-38
0.453125 -0.015625 0.078125 2.341806413e-38
0.453125 -0.015625 0.09375 2.341806413e-38
0.453125 -0.015625 0.109375 2.341806413e-38
0.453125 -0.015625 0.125 2.341806413e-38
0.453125 -0.015625 0.140625 2.341806413e-38
0.453125 -0.015625 0.15625 2.341806413e-38
0.453125 -0.015625 0.171875 2.341806413e-38
0.453125 -0.015625 0.1875 2.341806413e-38
0.453125 -0.015625 0.203125 2.341806413e-38
0.453125 0 -0.140625 2.341806413e-38
0.453125 0 -0.125 2.341806413e-38
0.453125 0 -0.109375 2.341806413e-38
0.453125 0 -0.09375 2.341806413e-38
0.453125 0 -0.078125 2.341806413e-38
0.453125 0 -0.0625 2.341806413e-38
0.453125 0 -0.046875 2.341806413e-38
0.453125 0 -0.03125 2.341806413e-38
0.453125 0 -0.015625 2.341806413e-38
0.453125 0 0 2.341806413e-38
0.453125 0 0.015625 2.341806413e-38
0.453125 0 0.03125 2.341806413e-38
0.453125 0 0.046875 2.341806413e-38
0.453125 0 0.0625 2.341806413e-38
0.453125 0 0.078125 2.341806413e-38
0.453125 0 0.09375 2.341806413e-38
0.453125 0 0.109375 2.341806413e-38
0.453125 0 0.125 2.341806413e-38
0.453125 0 0.140625 2.341806413e-38
0.453125 0 0.15625 2.341806413e-38
0.453125 0 0.171875 2.341806413e-38
0.453125 0 0.1875 2.341806413e-38
0.453125 0 0.203125 2.341806413e-38
0.453125 0.015625 -0.125 2.341806413e-38
0.453125 0.015625 -0.109375 2.341806413e-38
0.453125 0.015625 -0.09375 2.341806413e-38
0.453125 0.015625 -0.078125 2.341806413e-38
0.453125 0.015625 -0.0625 2.341806413e-38
0.453125 0.015625 -0.046875 2.341806413e-38
0.453125 0.015625 -0.03125 2.341806413e-38
0.453125 0.015625 -0.015625 2.341806413e-38
0.453125 0.015625 0 2.341806413e-38
0.453125 0.015625 0.015625 2.341806413e-38
0.453125 0.015625 0.03125 2.341806413e-38
0.453125 0.015625 0.046875 2.341806413e-38
0.453125 0.015625 0.0625 2.341806413e-38
0.453125 0.015625 0.078125 2.341806413e-38
0.453125 0.015625 0.09375 2.341806413e-38
0.453125 0.015625 0.109375 2.341806413e-38
0.453125 0.015625 0.125 2.341806413e-38
0.453125 0.015625 0.140625 2.341806413e-38
0.453125 0.015625 0.15625 2.341806413e-38
0.453125 0.015625 0.171875 2.341806413e-38
